ply
format ascii 1.0
comment VCGLIB generated
element vertex 1812
property float x
property float y
property float z
element face 0
property list uchar int vertex_indices
end_header
82.4985 219.559 134.8485 
90.93333 229.748 104.892 
107.1488 208.764 79.9504 
137.3151 165.9642 136.2985 
32.5903 273.701 41.9989 
100.5763 135.3387 117.9719 
154.3739 147.7987 116.1989 
65.4901 209.779 137.2255 
25.8564 200.877 137.779 
32.8754 142.281 110.1216 
69.1461 195.8394 76.2569 
143.8286 161.1702 96.69409 
127.4937 135.4669 103.0789 
25.1955 267.943 57.9392 
71.7965 225.211 116.8448 
137.5229 159.0309 133.0268 
65.19749 140.194 70.2077 
148.5095 172.3104 118.8157 
36.4128 144.5618 134.6899 
48.4103 246.262 115.4112 
152.1231 173.4583 117.2399 
67.1589 191.5526 75.7562 
11.6947 249.858 126.5188 
105.3791 215.468 81.5847 
10.03 232.328 139.9309 
8.409701 225.424 107.2661 
85.1422 263.977 82.5405 
82.9501 222.405 131.2344 
98.88067 200.971 77.0464 
8.460901 218.654 107.3195 
26.483 204.058 137.3151 
64.4948 202.861 140.7303 
52.4923 173.2702 141.6223 
86.9314 283.424 74.72211 
111.4915 230.592 109.6292 
42.1342 254.169 127.4197 
143.9346 195.9403 118.1595 
83.6072 138.4645 98.96049 
27.0223 238.423 93.04019 
81.8776 265.314 81.822 
35.1566 133.9553 113.0374 
138.1487 156.188 94.28616 
35.3079 161.7226 122.4003 
138.5298 163.1329 90.2235 
69.3788 259.741 86.5969 
82.1729 185.5379 61.1545 
12.2307 213.692 128.9151 
59.896 135.9968 142.7867 
17.4205 193.7805 93.43056 
121.809 224.2 100.1425 
106.4655 231.591 114.917 
73.3783 143.6536 71.1826 
136.0179 184.8402 138.086 
115.7394 228.861 118.3169 
75.18271 169.3751 144.8313 
14.3404 185.8717 99.47698 
146.1994 175.0316 105.1899 
81.4866 147.3863 150.26 
127.5656 156.3642 141.4619 
96.50468 223.738 134.2998 
29.8155 258.483 95.34627 
51.1299 202.81 78.9054 
107.3593 196.0033 72.3478 
28.2084 189.3503 83.9433 
89.7128 134.4076 81.5397 
55.7562 213.637 83.7682 
137.6363 209.584 120.7569 
139.4879 149.9122 132.2705 
50.5748 229.02 97.74813 
47.0986 214.056 83.7647 
37.9967 258.406 64.4035 
10.2968 213.874 122.9056 
128.9846 166.4902 80.0745 
32.7342 231.206 146.6969 
47.1685 155.8373 92.57996 
77.4556 278.667 86.6081 
97.50243 195.2299 154.6317 
62.7225 147.2266 80.68221 
55.4817 167.5631 140.4632 
75.1838 226.254 109.2614 
64.5198 136.5931 69.6824 
35.03201 228.232 91.27097 
17.5334 210.08 138.3967 
87.2818 168.5587 62.3341 
37.9132 239.878 93.44559 
109.4851 195.0229 151.2669 
93.6393 225.295 91.13982 
96.42326 134.7286 76.0085 
19.5764 204.574 94.40784 
142.1962 192.9549 95.20173 
38.175 264.563 42.3195 
55.2838 144.8943 88.7565 
58.4014 269.934 101.2916 
140.3707 144.4834 96.37229 
38.0376 137.1632 119.2279 
18.7015 184.505 132.8118 
7.159501 221.514 133.281 
58.9562 262.368 103.7146 
41.9159 232.712 93.65242 
71.4081 149.4861 76.4902 
31.4911 200.042 140.9867 
88.5143 219.632 136.9891 
42.1323 204.042 81.3898 
56.2396 136.567 74.7218 
128.9055 140.8264 129.7172 
36.4825 139.9079 92.85424 
113.6708 182.0393 153.2361 
84.22 228.598 108.1983 
50.2703 173.7805 83.4254 
156.6718 155.3009 123.8011 
11.2145 202.363 114.3842 
135.7777 170.014 137.6374 
55.3176 165.1214 85.4823 
74.3582 138.2997 97.24348 
103.605 134.0592 106.9963 
91.08489 226.415 93.99003 
71.748 150.761 76.5951 
136.0298 157.3371 90.29047 
85.1738 281.632 78.414 
138.4486 144.6185 130.0797 
28.5358 255.388 57.0879 
41.0537 143.6711 93.63549 
14.506 183.212 103.4997 
12.4469 221.23 99.30719 
46.6895 154.1891 111.5512 
105.2268 178.235 65.7533 
81.4254 138.1525 115.1621 
33.6435 178.3826 141.1592 
96.93687 134.6488 143.0839 
12.4234 222.583 99.28683 
122.4079 180.9035 150.0644 
110.7457 227.435 96.68233 
24.50381 241.423 147.1972 
78.2171 211.029 80.4243 
45.0625 240.991 129.3007 
61.1082 223.217 126.3098 
10.0859 240.577 114.2032 
47.1158 202.762 79.4364 
30.8291 247.293 71.3433 
32.06001 226.772 91.09733 
73.7859 138.3199 82.2622 
9.476498 237.837 116.1933 
95.50181 160.4864 155.1163 
109.1331 204.43 79.40401 
74.8436 213.713 83.62531 
116.88 204.029 79.8394 
125.2655 186.4752 76.3816 
18.5775 185.8535 132.8878 
41.9871 218.724 88.60381 
141.1176 166.1976 94.24319 
81.50371 204.41 143.1068 
53.1437 201.377 78.4552 
19.9239 193.6246 90.42242 
13.9411 213.009 103.2815 
139.8535 175.2995 133.0037 
23.7741 179.0445 134.9679 
112.3248 160.9207 70.68581 
113.0851 134.266 86.2643 
127.5411 144.881 136.0262 
22.569 208.115 135.7399 
63.3759 136.0289 145.2882 
34.51991 167.5388 133.0326 
119.2911 209.605 83.872 
73.5073 185.0795 150.2634 
82.381 261.286 85.94621 
64.1815 133.7288 79.0043 
82.5251 284.587 81.67081 
91.86536 139.1286 86.9832 
83.1585 222.494 92.3392 
55.511 180.3636 142.222 
78.1926 175.6618 61.1464 
70.9085 133.4798 73.0737 
45.3181 148.6825 111.6705 
23.1235 219.334 93.11707 
114.1489 134.7135 124.9225 
69.5117 157.4252 137.0157 
18.3964 177.4754 98.50024 
138.1363 179.4306 135.8549 
62.2376 142.0706 143.0123 
18.146 193.7329 92.43888 
95.23598 200.643 146.3697 
145.6793 189.0097 106.1744 
16.0126 229.456 96.72737 
111.2859 163.8878 69.11381 
114.7875 205.075 80.7 
108.193 134.2719 98.43678 
22.0639 229.573 93.43593 
34.6716 134.9129 136.6619 
23.0711 225.211 92.54032 
56.5433 255.083 107.2472 
12.5659 186.0792 114.4694 
22.349 254.407 105.8513 
27.2416 258.224 65.0769 
145.4221 188.9974 114.1646 
49.4704 165.7745 136.1047 
51.3798 140.3225 144.96 
91.20942 181.2731 62.0141 
48.5064 195.9907 143.9844 
23.0638 191.4256 138.1174 
76.3747 145.0591 71.8669 
86.9606 138.4127 101.5361 
25.8672 270.753 69.34341 
134.3704 204.711 132.3207 
27.1204 251.218 61.1101 
144.1946 187.4765 97.21188 
78.8354 193.3284 151.7404 
123.1289 183.5821 149.3611 
13.1121 211.328 136.3925 
138.7571 178.0554 134.9576 
22.88231 187.9695 87.3988 
28.2022 255.398 59.0924 
52.2747 235.673 114.0062 
130.8902 163.2769 141.0591 
48.4671 143.1219 90.17384 
35.3927 257.54 88.6824 
94.39269 138.9273 97.00367 
38.4567 225.505 142.614 
42.5783 235.337 134.5321 
55.1177 207.056 80.2076 
88.9343 212.343 80.9997 
128.8386 211.536 89.789 
67.09071 146.1288 145.1027 
24.6242 270.369 68.8609 
7.920705 229.683 128.2033 
22.0449 231.028 93.93508 
17.4938 210.166 100.3536 
78.9597 222.456 92.38217 
26.0312 165.3923 111.9616 
127.5209 188.828 77.9736 
122.8212 188.9774 75.7935 
46.4082 214.983 84.4184 
114.5534 134.7576 137.6203 
58.6041 208.9 80.7294 
32.2729 255.796 97.70882 
97.50264 197.8288 152.4276 
10.4534 196.9995 116.4128 
125.4079 202.05 81.9429 
36.0874 211.01 86.0522 
32.717 279.66 40.4666 
70.495 154.5565 136.2962 
91.44361 221.127 87.6331 
145.6785 186.2046 114.1695 
27.2226 268.69 75.5919 
113.9278 229.741 114.8027 
61.632 145.7007 77.0269 
140.7806 171.7592 91.23621 
36.4085 272.518 49.3983 
37.6443 252.158 76.4203 
18.5376 231.63 151.7276 
137.492 198.3062 90.2276 
39.0419 242.927 95.41926 
84.51951 209.966 141.6657 
70.5028 160.2632 137.2614 
130.238 181.4876 79.8299 
85.4999 187.0236 156.9643 
101.315 159.7888 66.9359 
48.1834 192.73 78.0782 
25.7916 167.281 101.453 
35.5187 257.544 50.723 
33.6195 135.6243 115.2158 
21.371 255.228 123.0232 
48.2861 147.497 120.6563 
18.1755 207.456 128.3887 
104.4866 211.391 141.6751 
40.608 249.673 135.3015 
23.8392 275.035 50.0039 
115.1695 153.4137 148.1113 
77.1757 186.8132 62.4787 
92.55367 138.6202 126.0498 
83.5278 138.2453 120.9318 
123.5133 140.7023 138.9233 
36.284 250.986 69.3592 
42.0996 133.6435 114.7513 
25.4916 234.461 151.0337 
51.6749 223.967 129.9918 
79.4922 149.871 146.386 
63.4153 222.192 90.79154 
46.5012 176.1753 142.6023 
88.054 263.588 85.3249 
144.7673 184.7221 101.1892 
75.6881 138.2419 104.8564 
38.1789 264.489 41.3302 
12.6275 240.519 109.1999 
145.2718 191.7995 113.1601 
147.4976 167.78 126.2203 
133.6899 135.7287 109.6937 
52.4879 143.8565 143.2608 
40.5517 159.0098 118.8119 
33.7838 139.6687 113.5434 
29.2019 167.2067 126.9443 
127.039 143.3782 135.2623 
59.3844 255.109 106.0988 
45.1786 243.869 129.5389 
52.9637 135.9078 145.1061 
55.0077 138.1195 77.7393 
122.3219 140.2539 92.29307 
49.9188 246.304 111.5954 
141.4492 202.86 116.1642 
16.6687 182.9966 129.2517 
36.3209 257.483 86.13441 
31.0822 264.003 84.1904 
70.1754 137.8766 129.3214 
43.1883 235.044 95.10684 
68.1208 256.356 89.51839 
45.6986 246.215 126.4084 
132.7247 164.6521 140.2099 
102.5111 191.1189 155.4408 
120.3586 156.5379 72.8425 
13.7896 207.661 110.3578 
74.8339 166.4206 142.4455 
27.0614 164.6873 114.6181 
15.0841 223.546 96.66445 
6.503798 217.401 117.3034 
131.8584 198.1802 139.2129 
30.9884 229.833 149.4501 
7.1254 222.834 128.2828 
6.926105 222.895 138.2751 
124.1695 180.9229 149.0966 
32.1761 251.09 56.3327 
14.9517 209.026 122.3524 
113.03 226.665 128.7751 
24.4892 226.011 152.9241 
60.2161 147.1068 83.9105 
70.8392 180.6486 144.5728 
80.6339 226.578 102.1441 
33.5017 202.849 140.7048 
76.8252 170.9692 148.7695 
63.15181 133.6146 73.3007 
96.50312 163.3763 156.3118 
21.3028 194.0445 135.5566 
114.7972 202.084 77.9152 
57.1958 133.8676 126.5755 
132.64 182.2319 141.9892 
75.7691 138.2399 126.5535 
46.6391 133.209 119.63 
32.5099 202.816 140.307 
11.4211 192.2253 122.8661 
83.17541 185.5538 61.0164 
28.5662 200.882 139.4174 
38.8478 145.903 139.3286 
26.4564 275.947 56.6374 
69.3349 255.159 99.3618 
10.1103 236.442 113.225 
117.7023 227.344 120.4737 
90.49902 188.4225 157.1104 
30.2575 264.473 83.8807 
54.3401 163.6306 86.4134 
146.059 183.4308 112.1726 
46.452 249.321 124.4145 
84.6322 196.44 151.7723 
45.3574 133.5759 90.18248 
57.4945 208.838 80.7837 
76.6564 279.984 80.0547 
54.1023 266.944 93.11487 
50.5022 196.0237 144.4817 
25.8188 174.527 133.9368 
117.2623 173.643 70.9542 
117.2732 179.2708 71.1317 
70.9975 157.8755 77.59399 
49.7399 154.3084 116.6402 
104.6535 134.1223 112.6365 
7.598803 225.564 130.262 
133.977 215.595 113.7221 
48.9064 256.101 95.14323 
44.5483 144.4829 92.8014 
110.2504 176.6955 67.64529 
102.1848 183.8969 65.1482 
109.8822 188.6651 154.7874 
123.6359 156.409 144.5932 
33.7042 163.7695 96.4095 
58.5034 164.844 141.2967 
113.5046 208.467 140.7674 
91.49229 145.7646 147.699 
85.4761 218.305 137.1093 
21.7164 186.0139 136.7982 
76.40501 280.085 80.3243 
118.2552 173.6117 71.349 
40.3214 173.8084 141.2039 
114.3906 137.3653 78.7201 
158.1533 168.5799 105.3586 
38.0311 253.737 75.4181 
35.485 194.5534 143.4117 
80.7234 155.4309 148.1999 
55.5037 219.293 129.4103 
11.1759 214.444 105.2477 
78.2171 211.029 80.4243 
17.9247 229.944 151.9532 
102.7594 134.3655 117.4794 
23.0058 254.149 87.099 
57.512 211.2 136.8617 
142.4296 169.6684 127.8335 
117.3629 153.7245 72.1919 
137.7471 204.052 95.15921 
116.4098 226.062 98.12299 
65.9187 259.269 87.2228 
86.26411 161.178 153.7969 
25.6149 263.815 63.02071 
13.8163 186.8588 124.8974 
43.365 135.0546 145.2244 
72.0914 170.4216 66.5099 
55.9301 253.194 93.00473 
48.9524 239.892 101.7206 
5.757503 220.105 118.2851 
19.3193 176.0273 97.46828 
144.2177 186.0807 97.20341 
53.5016 147.794 139.6541 
71.2589 136.6033 153.3099 
109.4122 140.392 76.69941 
44.5 148.8797 136.2241 
133.6664 175.3805 83.2417 
26.1303 167.2451 120.9913 
35.49981 188.9975 144.8988 
131.9556 194.2571 141.0831 
80.1916 219.865 89.1249 
139.4746 145.9091 130.9432 
137.4618 137.6657 106.8012 
36.5165 189.0243 145.2141 
20.5636 244.805 143.2098 
41.9213 233.988 93.99978 
58.2108 185.5226 78.6599 
120.5831 212.06 85.23289 
92.49483 147.1136 147.8292 
73.0566 186.4227 149.2292 
117.4901 134.6463 122.0409 
80.9762 138.4735 127.4147 
43.3973 156.2228 99.59241 
13.10501 243.263 137.9805 
28.6278 263.817 55.0387 
20.071 251.371 101.2104 
107.8939 137.3631 89.92 
77.6937 138.0908 121.6787 
150.5096 165.1476 128.4061 
87.96381 138.8366 132.1214 
46.6115 222.494 90.61753 
33.7143 162.5946 98.58119 
100.4904 195.2019 154.4773 
12.5659 186.0792 114.4694 
25.4667 252.696 74.1095 
34.8994 145.8549 103.6896 
145.8506 187.6137 107.1808 
22.5092 237.247 149.9166 
50.5019 147.7699 139.5132 
54.5004 146.4888 140.8011 
10.822 237.924 138.1661 
47.1133 133.4295 121.3081 
52.4067 234.581 118.4866 
85.5664 220.974 89.8849 
66.3672 226.783 104.5725 
88.5028 187.0124 156.8248 
92.10339 198.211 71.9669 
79.5191 152.6524 145.9576 
69.8264 135.3405 150.6988 
25.2678 172.9443 131.6828 
110.3848 136.06 77.5607 
63.3789 224.122 92.75315 
142.6389 176.4517 128.1735 
36.18071 258.306 53.4022 
120.0475 135.5684 132.6031 
38.6555 143.4338 142.412 
67.5093 181.7336 141.6408 
56.5051 181.7618 142.266 
34.7035 247.932 72.89581 
126.0496 142.0955 135.3242 
42.6196 251.726 131.9973 
44.3461 253.362 126.7778 
109.5119 156.0842 152.7429 
8.417904 244.732 120.1581 
41.9574 253.536 130.3048 
141.7012 185.878 91.19916 
89.7366 229.467 104.4497 
19.4936 203.384 131.4383 
119.8232 138.5183 87.3079 
79.8069 281.64 84.7743 
131.2116 217.42 124.0751 
126.592 157.8126 78.2474 
114.3052 227.349 126.3844 
58.9882 226.885 118.0931 
82.34451 201.71 76.2378 
67.0751 136.9927 150.3412 
22.0095 273.544 52.9913 
131.6901 175.4766 142.3249 
140.891 191.7758 90.90025 
20.0142 250.056 100.1668 
19.0647 245.916 99.18084 
19.8104 192.6573 134.266 
22.434 255.252 110.2497 
101.4579 197.7369 151.9067 
7.300705 224.215 135.2716 
58.9827 226.78 95.96155 
47.5101 197.3506 143.3264 
90.05359 133.9021 74.8076 
69.435 138.3245 134.1404 
123.7088 194.2271 146.7477 
27.1488 252.626 62.1119 
37.0886 215.341 88.2015 
68.28419 138.3538 95.96576 
85.25481 223.455 93.28799 
105.3524 230.989 120.2309 
18.5578 206.028 129.4684 
132.6207 194.4486 84.04321 
102.2525 198.6072 150.4164 
101.331 162.6915 66.0393 
58.1565 192.8469 77.034 
80.4504 261.752 85.2599 
57.8833 257.651 90.16135 
113.9874 192.4572 72.1158 
115.9163 136.6121 143.4543 
19.4253 254.604 123.8516 
37.2075 183.8575 80.8326 
47.0924 236.719 128.7121 
73.2303 175.0695 145.2054 
23.5439 206.685 135.3026 
76.3996 138.3091 97.64819 
119.4745 185.1519 150.256 
38.3322 243.939 137.247 
75.5037 205.758 141.9767 
67.7348 277.059 87.0141 
52.7647 223.92 128.0317 
37.07671 249.038 81.42001 
43.1213 204.06 81.3511 
61.5102 213.893 134.4296 
120.5156 211.203 137.7036 
80.4597 275.7 83.8744 
142.9413 168.2748 126.8013 
50.7478 265.358 102.7443 
117.4821 199.0004 146.9682 
58.5044 146.4933 140.8152 
36.36731 255.181 61.3837 
122.2613 169.2548 73.0278 
107.2822 134.4718 98.07272 
54.0886 165.7109 139.1289 
101.4407 134.4391 115.3316 
58.7328 133.8015 87.1343 
105.5069 156.1304 153.2033 
104.3583 229.372 98.6531 
146.5334 176.46 111.1853 
85.50491 219.623 136.1429 
37.3744 250.596 78.422 
84.6414 271.251 82.8518 
52.6699 234.807 112.0125 
130.3366 135.2283 115.0252 
100.9019 222.026 88.6104 
78.18391 179.8852 61.1476 
14.6094 210.991 135.2247 
141.8633 171.8502 93.19584 
42.501 188.9744 144.6686 
34.3585 229.793 145.4963 
142.8837 188.7839 94.18299 
65.2311 178.0934 78.4962 
60.7301 227.033 97.68695 
110.4455 148.8162 148.7077 
22.0571 189.3818 88.4146 
40.503 186.1573 144.5009 
56.2831 133.6921 90.43029 
148.4958 169.1068 125.078 
74.2888 163.4738 140.2437 
64.8774 269.652 85.4186 
30.368 171.9472 89.53761 
115.9735 144.8127 143.8765 
84.4651 145.9646 150.2157 
61.9362 274.118 90.04392 
46.1114 261.243 99.08337 
50.3612 160.5583 88.6765 
17.1426 176.4021 118.249 
65.1296 201.474 77.895 
124.6987 216.7 132.3736 
45.3574 133.5759 90.18248 
27.1803 255.564 104.6323 
102.5048 187.0342 156.9864 
76.6206 226.748 112.7038 
24.9686 265.158 61.974 
79.4608 197.1418 75.0239 
132.415 138.3305 99.51139 
65.3717 153.3938 89.7471 
106.5562 221.628 86.9474 
17.3961 182.9175 95.44394 
58.5112 143.7926 142.1195 
94.94753 202.417 143.8081 
29.5193 260.2 92.31398 
70.102 138.5093 88.7949 
37.9988 224.1 143.7622 
133.3636 136.4347 116.3708 
67.40411 224.521 121.1556 
61.1751 222.181 127.8208 
47.053 229.3 95.33022 
48.5069 256.432 110.4716 
148.3875 144.4574 103.2579 
139.1967 172.6247 133.788 
116.5672 228.654 115.768 
71.3685 259.193 87.1389 
47.9877 133.434 94.50569 
138.3109 163.2029 134.2252 
37.5274 193.208 144.8109 
72.1722 277.181 93.03699 
37.5828 159.9054 104.7964 
20.6763 208.591 95.41979 
93.51277 214.138 140.862 
21.3605 263.873 72.0467 
109.5026 151.7655 151.3753 
86.56261 151.6868 150.2089 
135.7616 196.7769 88.1913 
104.4866 211.391 141.6751 
51.4272 150.3685 91.00998 
90.11245 203.466 76.3858 
43.3165 224.286 92.75374 
52.7873 268.412 98.013 
75.064 154.6494 71.5923 
36.2204 141.9038 139.2448 
54.8782 133.5948 88.39581 
66.5135 226.881 107.5368 
111.2459 229.755 102.4043 
134.6775 206.404 91.31969 
67.8909 133.78 116.3326 
28.0324 238.437 92.69408 
63.8105 135.5992 119.2692 
54.0534 134.5121 79.9924 
33.5066 162.4679 99.70275 
36.0937 220.904 91.24475 
94.65466 142.3344 148.1709 
37.3212 219.898 144.6407 
91.46421 144.404 148.4956 
34.8588 259.482 43.4994 
7.064998 217.416 123.3037 
11.5969 201.017 120.3758 
28.167 252.571 56.087 
138.2522 161.7095 90.2382 
116.2971 165.1874 70.5829 
47.2253 182.6622 78.4463 
29.89771 277.167 52.1281 
68.091 254.239 92.67982 
105.2901 166.8325 67.2773 
69.7746 262.455 96.52211 
37.7788 269.401 48.4142 
28.8115 273.044 61.8054 
81.5158 189.7075 155.5921 
93.15675 230.599 110.0344 
142.1796 183.2522 129.3553 
27.6326 277.806 52.7477 
19.7402 173.4072 119.5467 
21.6418 199.4351 135.0546 
28.2964 279.379 50.1099 
24.4327 172.7762 93.39869 
114.3906 137.3653 78.7201 
29.4957 188.7655 141.8556 
117.8265 228.119 114.8069 
9.124502 247.455 114.1474 
73.7332 279.961 83.03111 
116.7477 156.3074 148.6799 
55.4432 251.229 94.30988 
70.0278 152.3401 81.6363 
30.2917 263.8 50.0305 
11.2852 228.11 103.2826 
94.49654 176.042 158.5145 
149.5034 148.8243 98.33922 
9.212904 246.08 115.1486 
66.7014 138.4796 86.2852 
90.3517 271.546 72.92541 
48.3444 156.9841 129.5138 
82.382 263.994 90.15241 
86.3925 142.0889 73.2429 
91.25092 174.2103 62.303 
35.6356 253.473 61.9774 
49.5127 164.6576 135.1978 
107.5079 151.8308 151.9822 
138.1262 180.772 135.847 
118.1719 179.5251 152.7143 
74.8477 163.5221 141.1049 
28.4696 202.729 138.49 
26.484 280.65 46.4066 
135.1088 200.136 87.976 
62.90001 226.156 96.58224 
25.3727 249.901 70.1291 
21.3563 212.204 146.4731 
78.3206 153.8141 69.6748 
79.3813 258.806 89.7166 
80.5129 178.6419 156.0662 
128.5939 208.783 136.2583 
130.7617 184.8812 142.8147 
45.3552 215.434 134.9037 
38.5045 197.3435 143.11 
66.4815 197.4234 144.0535 
36.0242 228.226 91.41607 
113.9874 192.4572 72.1158 
106.2675 171.137 66.2529 
54.5068 149.1469 139.0026 
36.36731 255.181 61.3837 
78.8838 263.8 83.60431 
85.41151 228.899 108.6372 
93.49958 153.3369 153.0605 
37.6193 247.545 91.42603 
64.30601 166.6325 84.6686 
51.4262 211.377 82.1708 
31.0223 272.299 61.1988 
65.4919 183.2025 142.5625 
25.0616 277.982 53.2227 
129.911 220.086 112.1698 
125.0862 174.1055 146.8243 
45.2608 175.379 81.4825 
144.1667 197.3563 106.1691 
43.8505 134.1243 127.0787 
33.26041 268.684 69.19 
58.5065 212.526 135.6807 
104.9254 211.581 79.807 
101.5077 189.7546 156.027 
38.5765 272.219 38.1587 
92.51797 223.738 133.9317 
56.3471 134.6111 134.5638 
88.71021 139.5292 138.8441 
146.4132 147.2054 97.28272 
19.1214 222.166 94.96933 
45.5025 221.335 89.8312 
82.52351 171.5932 154.7125 
55.6996 230.334 109.463 
53.4973 262.256 106.4503 
79.3038 138.5843 90.57217 
29.2861 172.1775 134.9299 
91.77393 200.046 148.1626 
29.3175 263.806 53.0262 
47.296 243.169 121.4165 
104.7176 134.6554 142.8856 
31.9393 253.823 50.1092 
71.3353 225.711 112.2564 
72.3017 225.752 109.6682 
47.0924 236.719 128.7121 
76.14439 226.292 106.6987 
21.4652 177.1858 93.44296 
6.456502 218.764 123.3045 
24.5053 242.836 146.0912 
8.468702 247.463 117.1482 
137.3902 156.1474 93.86216 
143.3285 187.4073 95.20629 
83.1639 263.394 83.4668 
54.1975 133.6244 95.58578 
118.2602 227.523 119.2457 
139.0959 138.2591 114.0545 
138.3695 153.3606 93.45147 
114.283 168.1091 69.3095 
118.5107 208.486 139.8481 
24.50381 241.423 147.1972 
83.7456 283.109 79.9112 
26.0668 277.709 53.5945 
109.5007 168.8226 154.9942 
43.3165 224.286 92.75374 
35.6056 141.8449 128.6723 
13.1701 184.6427 103.4846 
7.261604 222.733 109.2706 
92.4964 221.08 136.3047 
56.5548 220.253 86.8133 
86.5226 227.753 100.758 
39.6295 218.249 89.1399 
42.2813 246.758 132.3537 
135.7625 136.4791 113.1618 
106.8561 199.0064 77.1593 
83.7356 214.53 82.69701 
62.4972 202.851 140.3695 
80.5799 224.6 96.17676 
146.3327 142.1886 117.365 
32.4011 256.142 123.9498 
144.1509 195.9467 116.1545 
37.7107 250.65 86.4217 
69.9972 225.562 105.9056 
61.8755 262.196 87.0148 
90.12294 208.745 77.9147 
55.3971 230.656 110.8143 
145.2912 190.3849 103.1762 
76.563 175.3613 151.7266 
56.3508 157.7877 88.1849 
131.0879 215.727 97.30955 
104.1932 188.0606 66.45121 
44.9334 251.635 97.84221 
111.1874 163.0268 152.9412 
71.7665 138.2933 131.0718 
81.7365 280.096 75.5151 
32.7342 231.206 146.6969 
33.7346 229.803 146.3681 
109.519 150.4027 150.4431 
75.1892 164.983 142.1327 
121.6437 220.011 92.66661 
33.1665 243.964 142.0823 
76.0192 193.6155 68.6408 
71.5129 193.2302 74.4059 
37.086 218.07 90.09632 
25.3065 211.142 92.39822 
95.50916 219.679 137.8771 
118.4831 205.752 142.6872 
136.7682 170.0097 86.1985 
65.5057 171.8865 141.5833 
22.3755 251.441 97.12076 
160.8111 165.1191 115.1635 
25.4851 221.791 153.3186 
87.5056 187.0249 157.0339 
110.1261 184.6794 155.1401 
24.2084 255.001 105.0382 
75.21481 178.3802 62.2637 
146.6692 175.4291 112.2452 
144.3474 150.51 94.20031 
11.5579 233.772 142.6038 
77.79581 278.612 78.7419 
56.4768 263.746 105.2428 
155.3211 162.2297 127.1921 
28.5037 218.989 153.3881 
55.2838 144.8943 88.7565 
132.8851 155.6122 87.2858 
36.11 139.7139 115.4457 
146.4934 163.8096 129.1729 
12.9431 237.884 142.5258 
27.3595 248.337 68.96021 
101.9026 230.874 103.2232 
25.1834 192.1259 85.5631 
51.0997 133.496 105.9637 
135.7976 137.8059 119.2762 
27.1928 250.12 138.5587 
129.5344 152.4338 83.2537 
11.0777 188.8194 108.467 
18.3036 173.4472 106.5314 
77.9059 171.0555 150.5203 
102.761 231.717 112.1378 
32.8681 135.5924 114.5398 
146.4327 176.9932 114.129 
80.691 136.2824 72.22121 
30.3677 256.261 123.2204 
71.5547 190.3864 144.8476 
40.4557 255.728 118.094 
25.3804 247.202 86.1445 
33.3636 250.881 61.4493 
64.0507 225.342 95.42461 
35.1109 198.1501 82.9888 
126.2381 219.658 127.9158 
29.0673 278.806 50.3943 
25.1834 192.1259 85.5631 
8.029803 214.664 112.3319 
13.7166 241.953 140.2325 
19.1558 210.042 98.44236 
37.4043 158.8736 112.8867 
18.4052 223.081 150.4133 
86.26981 207.232 78.4298 
10.8788 188.8935 115.4552 
114.169 160.3418 150.255 
135.2999 172.7523 138.7329 
19.0112 200.705 131.995 
44.7186 146.4664 125.6754 
110.5493 222.164 88.3495 
7.049702 228.215 112.2521 
37.4805 244.437 93.41751 
37.5873 250.637 82.4237 
145.3672 145.6539 126.9438 
86.6556 138.9099 86.14581 
69.8636 134.9235 147.6426 
57.2191 146.4775 87.643 
25.9474 272.196 51.9556 
153.783 156.1466 98.21859 
33.4192 133.4125 100.6447 
10.6041 194.2918 117.4254 
35.0826 136.4897 125.021 
124.3441 153.5282 142.0575 
50.5964 237.04 119.3807 
18.9213 254.935 119.2662 
39.2378 178.1498 81.23631 
28.3765 169.3585 130.1698 
55.2525 246.272 102.4003 
107.6608 161.6753 154.9139 
139.6909 205.526 101.1934 
69.3802 211.35 82.11501 
30.3553 266.615 48.9887 
95.50515 148.8681 150.4112 
5.564302 221.484 122.2838 
35.9049 170.0461 136.4211 
13.1113 202.318 123.3696 
74.1619 178.1035 149.8012 
88.2443 134.5134 74.164 
135.3499 142.038 128.119 
6.701499 225.478 112.2618 
91.41618 138.4847 109.6485 
54.5696 230.382 106.0835 
48.7342 133.5234 103.6512 
107.1635 134.3484 120.2029 
37.4583 141.0514 115.4849 
35.5674 252.123 135.4487 
66.7081 224.337 96.54214 
92.20287 181.2765 62.0831 
41.4396 233.937 136.4008 
89.3423 265.418 80.1894 
117.2187 217.738 87.11191 
52.4203 135.695 144.9374 
34.7254 137.8654 139.4026 
17.9487 188.2817 93.37178 
124.9135 139.0596 132.3329 
71.133 162.0809 73.58051 
130.443 149.6674 90.25224 
86.2697 169.9989 61.9498 
104.0772 231.556 108.3376 
90.24546 172.8065 62.3607 
40.5037 208.4 138.6802 
18.1254 244.748 141.4084 
29.9407 252.584 134.9486 
68.0449 134.8046 143.8977 
87.6354 209.877 79.6175 
69.7526 225.253 102.9034 
56.4953 216.629 132.3741 
42.8582 134.1673 126.8338 
40.2407 176.71 81.4781 
36.9369 135.1206 142.0909 
27.2742 257.431 97.34734 
23.5005 234.472 151.5165 
120.4871 193.4146 147.6927 
65.44951 275.605 88.018 
10.2802 235.201 138.2086 
138.5436 203.322 127.7283 
114.3485 155.2312 71.1854 
78.85181 269.745 79.9086 
32.9807 190.1061 143.79 
50.3791 151.7545 91.42468 
137.3988 143.0101 96.23338 
29.0354 175.4682 137.3385 
6.223999 224.126 114.2628 
8.571498 244.743 122.1537 
53.5019 145.1704 141.9279 
120.7029 195.0845 77.3092 
83.5078 203.019 143.564 
91.29776 162.7847 64.3553 
101.967 138.5066 124.4659 
105.2268 178.235 65.7533 
63.4153 222.192 90.79154 
52.17 192.7226 78.3778 
37.6836 253.672 69.3937 
43.6656 254.371 123.6088 
139.6278 203.602 98.39233 
101.484 142.7923 146.0657 
24.4282 265.165 79.84521 
77.9997 281.634 87.4244 
52.1754 229.609 127.299 
134.843 186.2437 139.9362 
42.7192 134.5537 143.8127 
37.2565 247.49 86.4156 
50.2127 185.5205 78.31239 
55.3353 217.939 85.2342 
56.5472 224.91 121.6806 
42.1204 202.621 81.2117 
96.50399 161.9414 155.6852 
49.2035 134.5143 133.135 
41.928 235.467 94.22112 
20.786 255.524 118.4351 
35.7531 142.3257 112.9047 
61.5024 200.064 141.5702 
111.503 208.488 140.3225 
89.5125 207.24 143.1922 
109.5904 231.031 108.9305 
133.4188 215.464 102.0491 
124.8383 183.5695 75.3704 
70.091 190.4807 73.4047 
15.5232 185.6095 127.4708 
111.4719 218.2 136.5719 
92.67149 194.2973 66.03899 
87.415 193.3765 64.93871 
86.4579 193.873 154.7462 
43.1835 255.074 116.1832 
89.4609 144.4694 149.2224 
93.48505 174.6355 158.305 
69.6378 155.196 81.6198 
12.6276 224.348 147.5064 
74.5437 220.601 128.8472 
115.5789 225.536 96.7237 
33.0451 260.975 43.1351 
29.67981 232.668 149.3213 
13.1578 234.936 102.2694 
25.3532 251.291 71.11971 
69.46671 278.655 94.34647 
142.4926 158.3469 131.3486 
90.50085 205.857 143.5217 
141.3366 158.8699 95.50352 
120.0527 161.8555 148.2337 
40.9151 164.4137 131.8252 
37.7454 252.185 80.42251 
16.8361 208.847 101.3279 
27.6379 214.661 151.285 
130.0578 163.2721 141.6198 
93.267 168.4593 64.00349 
146.3347 142.8813 120.444 
15.8709 181.7203 102.481 
28.437 251.347 56.3756 
25.2645 261.794 87.3043 
34.4404 271.143 56.6793 
83.2534 261.131 86.4308 
65.8318 172.3955 79.5055 
86.8726 138.7957 93.75175 
126.9552 222.658 111.0745 
23.8197 191.4451 138.7697 
37.792 267.823 49.4155 
9.606302 242.028 128.1621 
83.2433 171.4512 61.3421 
57.2295 182.6571 79.2337 
151.1802 168.7267 125.6724 
35.1109 198.1501 82.9888 
150.8347 172.7393 119.6905 
124.6022 194.2401 146.2765 
79.3038 138.5843 90.57217 
50.545 218.007 131.6443 
81.4156 263.99 90.51465 
128.1531 219.463 125.7844 
60.2154 184.1362 78.42361 
49.5051 238.575 120.3939 
26.8254 254.066 68.0904 
105.2268 178.235 65.7533 
87.4623 136.5668 82.85201 
9.934605 232.428 133.223 
16.5988 246.003 138.6574 
122.6739 143.0625 88.26801 
127.6842 176.8145 145.3329 
63.3068 166.5933 85.0519 
32.4073 270.56 64.5788 
122.5251 200.664 79.4513 
57.5011 266.74 103.8164 
109.5007 168.8226 154.9942 
75.2165 266.781 90.29276 
112.4938 158.9954 151.3278 
160.906 160.9648 111.1554 
155.3211 162.2297 127.1921 
98.67648 196.6684 69.6247 
48.7429 148.8673 120.6327 
27.5182 265.221 57.0198 
81.50681 184.2766 157.4008 
123.01 134.7163 102.863 
154.5625 159.5427 127.8248 
21.5082 244.814 143.6628 
125.0125 163.2249 144.8766 
58.4652 263.761 104.4474 
93.49431 167.5101 155.9953 
107.4856 216.867 138.4917 
86.2765 165.7235 62.76581 
145.113 186.1573 102.1948 
102.127 199.4865 148.8443 
106.3796 231.641 112.0332 
141.574 139.7142 116.8995 
65.3324 135.9024 82.80701 
76.2424 171.3185 62.66411 
93.49958 153.3369 153.0605 
45.247 178.2755 80.2766 
43.2234 184.0541 78.6065 
11.2479 196.9152 107.4229 
41.3085 147.2669 108.6404 
78.0387 224.807 98.04295 
138.6173 167.3644 88.2449 
40.5167 144.0844 125.6893 
93.77872 138.4574 111.9659 
102.5041 185.6622 157.3274 
62.7503 226.436 97.35184 
117.4667 222.816 130.4302 
110.7439 230.936 112.2066 
112.2103 189.3249 69.347 
79.8553 266.816 88.2188 
72.8063 274.158 81.6541 
75.7378 165.0295 143.001 
38.3643 258.429 75.4112 
105.5029 170.2783 155.8582 
125.7679 134.9257 118.0133 
12.1971 212.934 131.3303 
88.2458 138.6862 84.798 
75.5173 144.849 152.6821 
15.7206 215.636 99.25215 
80.7993 139.2753 139.2298 
90.91556 139.2597 135.9512 
90.61515 199.2897 74.8087 
61.4971 134.6069 140.918 
49.4995 209.789 137.9415 
110.5539 204.067 79.7485 
103.4577 198.9815 149.3164 
47.4355 141.7313 89.8469 
28.0707 226.758 91.18924 
41.1718 140.8079 145.6406 
88.28271 164.2717 63.4113 
29.5017 199.9903 140.3231 
100.5048 191.1354 155.8722 
54.1162 229.671 102.9356 
40.889 168.6528 136.9372 
26.3852 199.5067 138.7799 
129.8839 218.971 123.5707 
14.053 204.892 104.3798 
7.232599 230.992 117.2311 
66.857 257.873 88.1936 
80.0904 138.2242 107.5829 
35.6277 159.3574 112.0942 
14.6275 211.782 127.3822 
19.392 172.0682 116.5498 
94.49588 154.7964 153.8028 
59.5262 208.409 138.128 
55.1819 189.8814 77.9464 
36.7005 145.657 100.7085 
152.3694 154.5712 97.25616 
123.4516 138.9975 136.3054 
110.3202 160.9665 70.0699 
43.1658 166.6429 135.6476 
35.8497 143.6305 111.3748 
10.9991 218.943 146.4523 
145.4321 186.1887 118.1684 
61.2676 256.611 105.3264 
134.3242 200.732 87.3556 
111.6668 154.8951 151.8589 
65.5717 133.8921 113.9586 
65.1297 202.876 78.42741 
132.3738 204.756 134.6971 
52.4739 133.5634 91.62377 
109.2941 165.3548 68.3059 
44.3461 253.362 126.7778 
14.38011 244.636 107.1729 
149.5045 165.1553 128.5253 
106.3311 155.3726 69.3287 
10.2317 191.592 115.4417 
118.4111 222.524 130.7587 
37.6444 133.7533 90.30499 
157.5548 153.733 106.1831 
43.5438 259.872 104.0676 
51.5021 201.507 141.9588 
9.686902 226.767 105.2842 
11.6863 203.697 115.3744 
58.2916 168.1156 83.9755 
8.117102 216.106 133.3156 
131.7217 163.9399 81.3134 
51.0475 223.989 130.8621 
31.9319 161.235 116.8081 
64.79851 253.653 101.5706 
13.5029 250.096 108.2155 
24.5842 249.97 78.1354 
23.3809 268.746 70.6281 
105.7743 134.7896 137.5885 
96.40438 143.415 74.2614 
25.96811 252.138 135.1116 
139.5014 146.9731 131.5971 
76.8797 263.764 83.9535 
36.9726 266.296 59.416 
128.2213 187.5505 144.4323 
94.49664 164.7558 156.2438 
47.5025 211.152 136.921 
36.4278 175.3573 140.7707 
57.507 169.0949 141.6622 
68.2278 133.5835 74.3251 
117.0321 228.388 117.3658 
23.3163 194.1158 137.7884 
51.5026 197.4063 144.0017 
133.587 173.9599 83.20791 
119.5435 200.771 145.9866 
100.2514 171.2294 65.0391 
25.498 216.13 152.068 
38.3871 249.191 97.78362 
65.5046 218.007 131.2549 
61.961 226.372 96.34899 
33.84771 236.835 142.9956 
64.4745 181.8589 143.1427 
14.792 250.101 106.189 
136.8364 175.4262 137.436 
90.75578 134.4526 81.7079 
82.86131 271.259 83.7983 
90.50195 181.5484 158.0308 
39.5036 186.1621 144.6513 
114.9002 134.8014 134.0409 
101.5019 193.8741 155.0191 
31.40541 135.3745 94.41212 
58.5685 220.058 87.0072 
17.5765 224.446 151.0342 
117.0086 167.2594 150.9139 
58.5035 142.4145 142.5934 
88.2144 181.3065 61.3962 
86.8726 138.7957 93.75175 
89.5061 193.3018 65.0321 
40.0994 232.533 137.981 
146.1219 180.6353 116.1697 
66.8134 255.11 100.9847 
70.50911 191.7678 144.0939 
44.8167 172.13 140.1196 
77.1417 135.0556 80.3339 
56.4399 229.686 109.7317 
39.1388 143.5863 113.7318 
63.76711 265.306 98.37067 
82.20499 138.392 102.4132 
38.1332 265.619 39.9228 
107.227 179.6252 66.12151 
140.2616 188.708 131.9407 
113.5046 208.467 140.7674 
37.1039 258.419 82.4129 
19.4253 254.604 123.8516 
108.4231 138.5006 133.0183 
100.1696 231.258 118.3392 
47.658 135.529 145.7534 
122.7131 218.044 133.0191 
11.6419 187.5191 119.4553 
48.5012 190.386 144.7021 
16.476 254.076 121.3615 
137.2578 165.8262 87.2215 
61.686 270.034 87.7833 
27.0516 232.565 92.18758 
50.4977 186.2453 145.5995 
117.0352 139.3356 143.6644 
32.1952 274.21 54.4159 
75.3179 277.174 88.7664 
98.50563 180.1423 157.6885 
85.4465 161.15 153.2234 
157.6172 168.6777 121.7698 
88.21851 134.7775 142.9519 
151.0305 173.3741 116.8194 
24.0899 248.612 87.1396 
85.5216 164.5279 153.5035 
21.0784 272.194 55.9998 
31.4911 200.042 140.9867 
37.4721 143.5825 112.569 
73.0989 255.694 92.8118 
158.7007 153.8335 114.1792 
121.477 196.1774 146.9631 
126.2687 135.2193 119.674 
84.669 134.9099 149.1212 
16.0815 212.898 101.2707 
56.1145 135.74 144.0005 
146.037 180.6318 117.1753 
36.32581 242.603 92.1217 
108.5288 134.888 136.2651 
145.3383 186.1836 119.1712 
68.392 149.6402 80.6505 
64.2628 211.668 81.80251 
147.5361 145.1237 124.1502 
96.51195 216.93 139.8821 
61.4569 138.993 71.3761 
115.7741 136.715 80.3587 
112.627 221.84 134.2326 
121.4874 189.2516 148.6681 
45.7218 232.533 133.8047 
108.3061 191.7456 68.801 
50.4663 263.976 104.4787 
57.1185 208.469 80.6143 
116.5193 225.294 96.96836 
68.4956 186.0003 142.6216 
17.767 192.5905 132.0729 
38.1547 255.287 71.41221 
145.3693 169.3828 102.4512 
44.4758 141.5797 90.81674 
12.4457 186.1148 119.4651 
26.1891 193.5956 85.3186 
22.8347 256.191 88.5365 
66.0031 252.567 99.42654 
9.600103 224.268 144.8512 
143.5542 170.9351 125.9153 
68.2906 137.4952 131.0681 
82.9966 227.025 101.5954 
60.2687 172.486 82.55901 
59.5085 213.924 134.7061 
90.02979 229.828 107.4434 
43.379 156.2362 106.6523 
49.503 198.7878 143.5099 
114.2697 134.212 99.71021 
49.3811 151.7055 91.93378 
49.835 150.1393 117.6523 
36.1857 255.19 60.3885 
131.7719 215.994 99.02354 
48.4103 246.262 115.4112 
92.49483 147.1136 147.8292 
37.1205 252.19 90.41907 
36.8996 138.056 142.9096 
29.0385 248.056 67.5606 
99.50311 152.0342 154.1515 
111.0403 172.5847 154.6235 
152.1155 173.659 114.2686 
45.5509 256.028 111.2408 
104.1476 203.055 78.206 
62.4288 224.334 92.51941 
118.1431 140.8036 143.4958 
87.3933 140.646 73.4024 
119.6586 212.307 84.9486 
113.8055 171.2841 153.3593 
69.84821 136.0809 123.6741 
35.6333 259.406 84.4346 
39.5048 193.2426 145.1145 
47.5024 193.1679 143.9324 
58.5448 134.1096 90.50726 
93.51924 196.9085 69.343 
128.5217 148.0557 87.2722 
26.2073 232.633 151.3524 
131.9454 178.2138 142.7262 
39.5048 193.2426 145.1145 
99.65789 138.0462 102.5794 
123.0318 135.5156 111.4574 
37.5036 208.382 138.5383 
92.653 195.2877 67.0273 
50.6833 237.038 104.4246 
114.169 160.3418 150.255 
27.2344 256.832 66.0864 
126.6539 222.169 120.9401 
116.6876 147.5243 143.2195 
47.2383 146.1943 121.6742 
123.1695 152.0348 142.0858 
117.7398 228.218 111.92 
8.716904 233.698 114.2161 
18.2571 174.8341 116.5378 
46.0708 147.5998 93.56458 
16.6662 221.705 149.2392 
76.22031 225.538 118.4413 
111.5311 222.019 88.5019 
66.9831 175.0953 72.4954 
70.1534 138.5336 83.2071 
37.162 253.641 88.43851 
98.78313 220.006 86.7823 
51.6039 250.684 110.5827 
13.0649 206.366 116.3624 
86.4992 182.884 157.3146 
70.6944 225.075 103.2342 
58.5437 208.465 138.5585 
142.5779 192.9869 96.20282 
156.9539 150.8846 109.1895 
94.78894 138.426 117.6436 
57.4982 150.6116 139.4181 
71.0579 184.8695 145.6392 
126.9298 180.4165 76.66251 
112.5555 134.405 82.1749 
30.2294 133.7438 103.288 
96.51155 215.565 140.6522 
112.7323 186.0509 153.6553 
12.57 211.796 121.4228 
103.4879 214.165 140.8953 
115.3592 195.3434 148.7033 
96.2892 139.2109 133.5024 
121.4733 180.8843 150.4673 
143.7177 145.7281 128.3091 
66.1856 134.2727 126.3277 
150.5447 164.0078 97.86781 
128.5377 152.3356 81.2303 
133.8144 215.724 107.9161 
99.50306 162.0135 156.5388 
11.0421 190.1579 108.4553 
125.0223 210.364 87.0447 
47.6586 140.2098 146.5679 
27.5104 227.43 152.4304 
71.4967 161.6825 137.3869 
64.3476 146.0406 142.1919 
18.3414 237.613 98.19957 
115.2459 182.1521 70.3815 
31.2549 170.8436 134.7552 
133.2298 187.0923 81.31731 
81.2471 138.4803 96.62322 
144.6565 176.299 99.19308 
102.152 201.646 77.5873 
9.758301 233.644 107.2286 
96.03467 228.634 97.52003 
57.9377 254.724 91.51806 
54.951 136.7204 77.7816 
17.6757 254.364 121.7732 
107.5132 188.3379 155.6646 
38.2314 259.987 64.408 
140.3843 154.7484 93.58422 
56.5091 204.315 141.3728 
112.0758 136.3869 144.646 
97.12647 208.795 78.19981 
79.0639 138.1808 112.8466 
148.4686 151.1467 129.4828 
129.8444 206.115 136.3002 
46.3455 254.299 112.9697 
121.2552 177.7078 73.3149 
146.8003 174.5424 110.7517 
48.0231 134.0995 86.5625 
47.5107 205.673 140.2508 
27.1434 214.991 92.88685 
13.2266 203.584 106.3891 
62.5019 171.9295 142.0686 
26.5127 256.859 71.0836 
37.6526 266.249 51.4097 
76.5782 173.8847 150.3501 
128.1353 159.3598 79.2233 
40.2096 182.5229 79.8237 
6.818399 221.543 137.2829 
60.6533 139.2853 142.122 
18.5728 175.2484 119.5365 
142.7229 200.07 103.182 
87.4923 177.3203 157.2074 
117.105 191.3787 149.4605 
71.0267 153.6405 77.6212 
12.8979 211.516 139.7664 
51.2974 170.8482 84.87749 
41.6068 246.765 133.1817 
28.0018 232.651 150.4199 
59.4993 169.0879 141.7151 
20.85 266.638 65.0346 
65.1747 182.2923 76.3614 
128.2794 220.663 104.4321 
84.1544 222.449 92.39173 
8.886904 229.682 136.2351 
37.849 252.195 79.4217 
26.1334 184.6755 139.4915 
153.1328 147.6715 106.2018 
99.72855 135.6914 106.5817 
67.9062 145.7263 72.9413 
6.552704 229.632 118.2372 
41.9903 236.726 133.6791 
71.5138 220.462 90.58564 
31.9115 260.93 44.99 
91.21437 210.674 78.7597 
85.1114 269.807 83.5361 
103.1517 203.07 78.0446 
53.8887 134.482 132.4006 
72.08771 179.3217 146.185 
131.9146 180.8971 142.698 
8.088902 220.015 108.2963 
7.097103 229.672 125.2445 
17.11831 243.196 102.164 
104.3349 220.467 86.2234 
49.6822 151.5583 118.6309 
44.1313 256.831 99.18705 
121.8834 141.5901 89.2802 
53.0635 140.4762 87.8851 
76.2171 177.0195 61.7551 
141.6044 177.4454 93.1965 
75.2368 174.1431 62.5429 
84.5035 157.3571 151.3792 
9.3081 242.015 123.1619 
20.7379 184.024 90.42999 
82.0798 138.5865 83.6606 
122.9251 147.6731 139.919 
98.22163 181.1944 63.4409 
71.1062 182.1008 145.6772 
31.4836 166.9975 129.3604 
58.0098 227.061 117.7443 
115.7288 174.0195 152.6622 
47.9067 254.615 95.9436 
72.21301 183.8632 63.9314 
137.6477 210.588 109.2803 
92.20935 230.523 112.5627 
18.2696 207.364 97.39514 
72.5017 193.2247 144.7643 
7.391803 217.405 124.3082 
61.1598 195.7243 77.32629 
105.8338 229.313 126.1699 
66.4866 201.547 142.0338 
148.4193 163.9761 97.88696 
79.71581 269.77 86.2738 
39.015 268.641 40.5102 
131.0879 215.727 97.30955 
57.6867 229.133 108.7216 
63.5223 149.1722 139.1199 
7.380702 222.848 131.2739 
62.2975 144.4987 74.6612 
56.368 146.2886 88.7186 
47.5009 201.502 141.7298 
73.19241 222.539 94.37811 
46.7607 144.8331 120.6817 
51.9772 244.604 105.4511 
17.5132 196.5084 94.40424 
70.1054 143.6977 150.6861 
18.9305 211.472 99.35405 
55.7106 226.542 119.8398 
79.2498 162.6823 64.7795 
106.3727 230.879 120.5945 
68.39951 170.7575 73.5211 
103.5119 145.9363 148.3003 
12.7753 252.479 121.6964 
129.6171 219.88 119.1943 
27.0729 251.083 137.025 
13.303 214.875 146.0769 
24.8691 254.085 82.06731 
72.9593 225.883 111.3821 
114.0143 135.7038 103.8879 
64.9029 260.74 86.552 
144.4976 158.3814 131.8302 
97.34892 149.7012 69.191 
14.4492 188.3229 127.0467 
75.4986 143.543 153.4366 
146.4333 145.5453 99.33787 
77.6978 265.377 90.38727 
33.5017 202.849 140.7048 
110.2881 163.916 68.72829 
47.1135 251.17 119.1272 
34.2271 137.8142 138.507 
75.8495 137.8782 112.4647 
68.3617 136.7739 151.1824 
22.763 172.1326 126.6059 
51.277 234.043 123.9744 
44.5041 195.9795 143.6611 
86.5277 160.3845 153.6243 
127.4263 149.1525 137.6576 
154.4233 163.5568 127.6516 
27.4655 240.015 147.5615 
57.2719 147.8381 88.7227 
139.84 206.962 105.1739 
9.017505 216.07 130.3184 
65.29919 166.6358 84.6673 
18.50911 178.8596 128.943 
85.26521 134.8101 147.5803 
25.2412 166.9346 117.5421 
96.56828 138.5593 121.5021 
138.8894 160.327 131.4833 
115.329 218.191 86.625 
55.3665 226.046 92.76035 
25.2564 184.6695 138.9578 
132.8708 174.0673 140.4957 
33.84771 236.835 142.9956 
24.0701 226.701 92.05695 
130.7617 184.8812 142.8147 
25.507 245.596 143.7863 
35.708 268.172 39.4121 
15.8198 236.658 146.769 
35.3514 256.189 116.2701 
69.2572 155.2453 84.6202 
17.0197 253.189 108.3737 
113.4639 161.6949 151.0096 
48.1482 197.0732 77.7937 
132.634 195.4843 84.9411 
58.2108 185.5226 78.6599 
5.612001 224.185 123.2804 
138.1305 174.3398 88.2335 
79.1836 179.7246 156.0382 
37.8666 255.99 115.7191 
142.1962 192.9549 95.20173 
43.9833 133.4996 104.5135 
98.74551 221.89 88.7618 
138.6883 176.7039 134.8633 
50.7478 265.358 102.7443 
126.2296 188.8085 77.2227 
36.3093 224.164 146.6174 
75.4046 222.675 94.18495 
137.5013 145.461 130.6904 
5.606503 225.559 122.2675 
21.0339 185.9916 136.0799 
19.4012 190.913 91.3842 
139.0213 200.628 128.4944 
64.5784 275.45 96.37109 
16.978 232.397 97.3733 
141.5962 201.461 119.1676 
84.7669 278.626 73.0009 
125.2285 213.79 89.3632 
46.5097 202.908 141.3848 
68.1765 163.7622 80.5619 
38.2526 176.6736 82.02911 
119.1745 160.499 148.7078 
57.2356 181.2202 79.6528 
58.6938 223.313 89.598 
27.2579 280.568 48.361 
54.3086 166.5681 84.94771 
133.5552 136.072 107.4855 
17.431 179.0202 126.5184 
57.7739 133.9521 92.3337 
13.1171 205.004 119.3534 
21.2361 169.6569 112.5705 
143.5142 151.3638 132.5031 
36.1534 259.519 83.1795 
39.4302 172.7907 140.1099 
18.3131 173.4846 111.537 
107.4848 197.6824 149.4394 
60.5045 156.2825 139.9491 
52.61 213.671 83.7636 
133.3653 191.8289 82.8129 
52.2747 235.673 114.0062 
18.3964 177.4754 98.50024 
92.5106 204.457 143.7929 
40.3741 255.781 115.1651 
8.316599 216.094 140.7438 
32.507 205.571 138.9191 
93.85558 138.6147 106.3901 
39.1186 202.587 81.4612 
18.1403 246.076 139.9402 
156.7453 170.7667 120.4115 
70.4948 215.28 133.66 
34.9036 255.112 105.9623 
98.57063 226.525 93.77423 
64.7784 134.6633 132.7857 
62.3844 149.2564 88.1067 
83.0687 194.0904 66.1892 
120.3664 150.6236 75.56731 
10.9108 195.5882 109.425 
41.0123 133.5902 109.2161 
82.3011 155.4882 66.72 
62.1356 211.663 81.8099 
157.6036 171.7386 116.3116 
75.6189 173.8035 148.4997 
11.3544 193.5942 122.9142 
73.6429 154.9776 138.3278 
52.5016 183.3402 144.3799 
15.7607 207.513 102.3878 
50.617 240.141 113.3936 
101.7079 225.8 131.9097 
56.6067 223.406 89.5216 
79.5238 178.6229 155.6935 
141.7415 167.6611 95.24719 
18.4411 209.88 138.7619 
72.5483 143.312 151.9115 
83.0771 138.5492 83.8957 
116.3996 144.784 76.3343 
70.951 151.1502 141.1139 
76.85261 138.4868 93.88046 
49.4197 150.2828 91.86198 
15.2041 247.297 135.7863 
47.3817 134.3668 129.3685 
44.7864 134.6314 144.1945 
21.1511 219.288 94.18871 
35.1052 203.911 83.4058 
138.0425 209.755 116.1689 
145.5391 187.5946 114.1649 
40.0456 158.1084 114.112 
27.8415 134.9122 107.1194 
55.5061 207.088 140.1229 
80.8387 138.383 100.3262 
34.0022 235.528 91.79333 
124.2369 174.8124 74.2951 
45.503 205.68 140.5938 
158.8348 170.4992 116.1593 
38.2944 232.5 138.8812 
40.4785 231.137 138.5262 
66.25951 175.174 74.51201 
47.2063 186.9491 78.3191 
81.8535 266.773 80.7641 
70.2001 224.34 100.1172 
31.2366 268.362 74.165 
99.17912 228.641 97.51717 
27.0415 234.037 92.29491 
60.9495 254.795 90.94337 
108.4994 174.4764 156.192 
93.33026 155.5272 66.9593 
110.4769 194.9778 150.9942 
54.3982 162.9458 138.8902 
50.354 238.599 117.3958 
31.5132 235.467 146.7048 
24.6586 256.12 115.399 
41.594 159.8457 100.2485 
28.1473 258.151 96.17513 
59.8378 223.949 124.3503 
105.4973 193.7843 153.579 
106.1279 207.304 79.6935 
16.5549 236.657 147.4496 
60.0287 212.687 82.7526 
103.8912 135.5229 85.18741 
79.1996 281.643 85.6541 
15.0712 226.49 96.65749 
28.2795 268.577 75.9541 
46.9321 240.053 126.392 
27.1164 219.408 91.86771 
56.9121 256.177 91.09508 
25.3167 255.701 99.63366 
11.2051 242.048 135.16 
27.2192 261.025 62.0601 
128.5239 205.924 85.8022 
79.7422 159.6247 147.6545 
24.0921 250.006 91.11159 
92.96503 201.085 144.5106 
101.7476 194.4417 67.9621 
77.72701 187.9769 154.4159 
36.5038 177.5171 141.6907 
140.8877 192.8069 91.82285 
38.38 250.156 98.75335 
61.5135 149.2045 139.4845 
103.4897 205.764 142.4132 
107.0199 231.464 116.5435 
41.3085 147.2669 108.6404 
27.3824 174.7594 89.1604 
137.9656 187.4795 135.6781 
55.2417 133.6472 90.26421 
123.4999 195.5508 146.4417 
136.6896 139.4563 123.4361 
72.514 164.6029 138.4895 
111.8001 134.659 138.9456 
84.053 224.632 128.5893 
25.321 277.203 54.7879 
38.5026 190.4473 145.4009 
8.655399 228.33 139.2393 
89.2922 162.8117 64.0351 
27.5625 164.3068 118.5598 
141.5613 175.1972 130.1802 
157.5354 162.0414 102.189 
129.7936 135.4746 116.5125 
69.5731 269.744 92.7033 
59.0901 273.193 94.3888 
120.4663 138.5832 90.30153 
131.5757 191.4687 81.1844 
86.5015 215.51 138.9419 
67.3033 184.9828 73.444 
35.6313 255.314 107.6772 
35.5066 206.993 139.043 
142.9126 177.5596 95.24195 
110.3602 152.4141 70.8511 
112.4259 230.345 109.9656 
41.0081 253.82 129.9308 
22.5279 255.387 123.4212 
38.4958 221.243 142.6924 
145.8885 177.8077 104.1977 
34.5916 275.187 49.514 
128.4258 144.601 93.80769 
45.6287 258.326 98.21125 
49.3811 151.7055 91.93378 
97.31028 228.069 96.10146 
92.49416 163.3646 156.2436 
13.0826 217.103 101.2529 
111.9151 186.0485 154.2349 
33.9122 261.167 85.241 
81.3121 155.4617 67.1327 
88.9173 202.149 75.8308 
100.7095 225.628 92.73885 
48.4611 141.7461 89.4185 
139.8576 201.362 126.1824 
37.3786 249.057 84.4187 
64.98981 258.094 103.6769 
82.1734 194.7205 152.6193 
32.858 263.768 42.966 
150.682 173.1977 110.749 
32.4867 208.346 137.7589 
81.8618 162.5693 151.0808 
24.6227 188.7668 139.456 
107.3096 160.9801 69.2635 
62.5022 183.3038 143.8252 
19.5449 234.426 150.865 
106.6053 193.5786 68.8901 
123.5632 186.2591 148.3322 
31.9471 187.4243 143.5129 
115.6162 190.4755 72.1804 
9.183504 245.736 126.3481 
33.0305 267.967 71.96941 
36.8371 224.137 145.6282 
34.4888 180.3784 142.6229 
156.9923 150.8892 117.1854 
123.7846 147.6926 139.4013 
137.3767 151.9575 93.33501 
137.882 205.959 126.802 
67.1597 134.8519 80.4164 
82.0633 226.31 100.3728 
36.36731 255.181 61.3837 
121.0892 152.1114 144.364 
103.6947 139.0982 93.11281 
88.5005 148.6859 149.0069 
45.2424 261.266 101.0572 
37.8677 160.2572 120.6983 
14.6732 227.125 149.6018 
38.2118 238.121 135.2393 
68.4209 225.791 117.0798 
63.5024 211.093 136.0234 
110.276 176.623 155.2854 
70.0278 152.3401 81.6363 
135.8297 212.651 104.3114 
119.1098 227.253 106.7313 
120.3578 198.5304 77.6903 
133.7476 153.4432 134.5417 
93.25565 134.0208 80.7173 
43.5013 193.2477 145.1284 
139.3029 201.95 127.0711 
86.59219 138.3017 116.0824 
132.4265 141.4912 96.34426 
159.2296 163.5939 105.1209 
8.545004 248.836 117.1378 
15.5218 252.284 126.9844 
56.368 146.2886 88.7186 
55.5629 222.416 88.561 
28.0312 247.362 141.9058 
18.302 193.9818 132.9068 
57.5293 163.4258 140.9808 
52.2458 178.2681 80.9282 
13.5957 211.678 105.3006 
58.6557 259.411 103.2558 
77.39741 137.9508 71.29841 
67.9969 137.0471 82.28191 
139.0954 181.4754 87.2465 
19.5965 174.5659 122.0984 
128.1616 169.9505 142.4355 
11.5841 202.321 110.3913 
98.50657 188.3979 156.6431 
47.1341 199.9263 78.3218 
107.8258 231.487 111.1342 
145.1716 188.9782 118.1643 
24.5327 253.642 131.5487 
31.433 267.578 75.6846 
132.3169 137.6319 122.3694 
133.3249 208.715 130.7644 
63.9023 256.596 103.8326 
37.5072 177.5409 141.9345 
34.66311 141.6124 135.2199 
94.61117 222.125 88.5443 
145.2769 146.7388 128.3148 
34.0401 228.235 91.14261 
73.5038 169.0788 141.5599 
128.4451 214.053 132.5229 
42.3946 165.8547 134.4063 
52.4145 151.8372 90.70494 
67.4632 179.2892 70.4711 
10.9892 242.042 134.1592 
107.3686 147.9637 72.6778 
83.4188 135.5875 73.2889 
155.706 150.7437 121.1984 
22.0065 271.503 62.0512 
132.6128 193.4199 83.1267 
100.4975 212.823 142.0607 
37.3494 253.382 68.12849 
145.7594 189.0174 110.1642 
32.8099 133.5697 96.77092 
132.1816 196.8615 139.6789 
156.9791 168.6933 122.6042 
49.2435 178.263 80.7909 
10.2731 213.038 136.1809 
19.4978 183.1735 133.4637 
41.3382 163.7687 130.7411 
79.2572 165.6176 63.53471 
91.288 271.156 74.2768 
123.4605 136.7801 98.34145 
111.3952 216.794 84.1465 
23.3372 255.608 92.10868 
30.4901 251.355 55.2871 
29.4689 197.2485 141.4142 
145.6484 187.5951 105.1813 
125.5432 176.8418 147.5089 
106.2105 185.1628 66.8537 
78.19601 137.6594 81.87591 
73.11201 134.4315 70.9529 
74.5099 201.602 143.5889 
34.5972 277.571 46.6153 
114.4108 218.463 86.333 
31.1282 163.973 123.1175 
75.9658 138.1218 106.8342 
84.5129 208.59 142.1893 
83.7906 272.709 76.0414 
70.73631 136.4551 69.92641 
138.8945 208.364 117.1641 
90.95271 268.146 78.28251 
85.7379 220.334 88.5569 
102.6154 134.1134 112.2343 
82.5811 278.658 81.6978 
