ply
format ascii 1.0
element vertex 1556
property float x
property float y
property float z
end_header
-0.0357951 0.124657 -0.0058294
-0.0486962 0.13553 0.00541025
0.00551307 0.0856288 0.0568655
0.0410592 0.0985428 -0.00379645
0.0123335 0.0581189 -0.0294366
0.0402464 0.0618954 -0.00472398
-0.0672794 0.176766 -0.0591515
-0.0561697 0.0684762 0.0377129
-0.0620012 0.1241 0.0437622
-0.0222409 0.0383275 -0.000251248
-0.0652193 0.1682 -0.0598394
-0.0744971 0.176396 -0.0436946
-0.0224613 0.12203 0.0284859
-0.050851 0.138527 0.021367
0.0438672 0.0916755 -0.00180444
-0.0825962 0.0869865 -0.00556699
-0.018937 0.178659 -0.0169738
-0.0884724 0.111842 0.0093465
-0.0524868 0.0959601 0.0436811
0.0490097 0.0482239 0.0267018
-0.0330104 0.126012 0.0180287
0.0276856 0.0494518 -0.0176966
0.0437965 0.0987467 0.00816432
-0.00109974 0.118227 -0.0153259
0.0231843 0.0658868 0.0457612
0.0427502 0.0832247 0.0284671
-0.0865136 0.106289 0.0083757
-0.0220941 0.0710555 0.0505203
0.00823122 0.079605 -0.0335706
-0.0254941 0.0486931 0.0489695
-0.017215 0.175671 -0.0245809
0.0298673 0.0740916 0.0431977
-0.0898405 0.133789 0.0312158
0.0175177 0.121695 0.0318921
-0.0442513 0.120873 0.0273959
-0.0424946 0.0972875 0.0422451
-0.0467885 0.0855251 -0.0217462
-0.0830368 0.0762381 0.00350806
0.0102504 0.0766955 -0.0323547
0.0464307 0.0792576 0.0101822
0.00722196 0.0865913 -0.0328221
-0.00587956 0.107379 -0.0226761
-0.0617588 0.0455326 -0.00130544
0.0319929 0.088146 -0.0193446
-0.0780833 0.1597 -0.0209281
0.0261658 0.0809584 -0.0239333
-0.0858505 0.116285 0.047652
0.00632209 0.0596079 -0.030662
-0.0896998 0.137926 0.0341919
-0.0623027 0.152202 -0.0135791
-0.0833347 0.0898073 0.030438
-0.0304932 0.104292 0.0413193
-0.0168782 0.0351038 0.0503404
-0.0401309 0.160681 -0.0117333
-0.0347686 0.16678 -0.00304399
-0.0669793 0.134061 -0.00834965
-0.0192376 0.0362049 0.0528295
-0.0713342 0.065071 0.0216423
0.00520505 0.129939 3.61829e-05
0.0414488 0.0873044 0.0301508
-0.0800971 0.0773092 -0.00453369
-0.0858022 0.150106 0.00719342
-0.0561028 0.133503 -0.00512832
0.00623037 0.129867 0.000104943
0.0062922 0.0654161 -0.0325779
0.00633738 0.0581963 -0.0307089
0.00913686 0.107291 -0.0199257
-0.0886344 0.0949473 0.0228281
0.000773445 0.126081 0.0315854
-0.0084928 0.0591086 0.0550857
-0.0217088 0.114301 -0.017023
0.0398543 0.102779 0.025179
0.00776642 0.130336 0.022539
-0.00792408 0.0384127 0.0189094
-0.0280931 0.033441 -0.0266965
-0.0440255 0.0336276 -0.0225259
-0.0736262 0.148585 -0.0238576
-0.0107349 0.0699421 -0.0371274
-0.0274872 0.094655 0.0450969
-0.0851043 0.10321 0.0261425
-0.0616548 0.140062 -0.00630976
0.0247455 0.105845 -0.0161092
-0.0578751 0.134121 -0.00585274
-0.0628575 0.0953598 -0.0185102
-0.0707511 0.0654954 0.0231537
-0.0106525 0.165176 -0.016643
0.0387947 0.101959 0.0281808
-0.0312929 0.0665317 -0.0234435
0.00450037 0.0427385 0.0456181
-0.0415923 0.0491549 -0.0111971
-0.0791181 0.10724 -0.00560787
0.0510178 0.0461394 0.00424124
-0.0609674 0.125285 -0.00834926
-0.0714181 0.143109 -0.0104276
-0.0115772 0.0991016 -0.0249869
0.0206713 0.0868458 -0.0260413
-0.0129795 0.0384272 0.0232864
-0.034827 0.0929417 -0.0239227
-0.013019 0.129549 0.0120959
-0.00124361 0.130098 0.0236021
-0.0164935 0.0744329 0.0555937
-0.086895 0.143263 0.0379805
0.0393635 0.0445531 -0.00413158
0.0113838 0.0463423 -0.025328
0.0482658 0.0433313 0.0185611
-0.0276246 0.160982 -0.00149388
0.024237 0.0727429 0.0473317
-0.0384621 0.172216 -0.000421117
-0.0944953 0.125552 0.0212653
-0.0717396 0.156144 0.0122972
-0.0236685 0.0919017 0.0500491
-0.0205087 0.18589 -0.0190712
-0.00684325 0.130599 0.0100344
-0.0894525 0.128349 0.0437622
-0.0124833 0.108618 0.0427908
-0.0532128 0.133944 -0.00360453
0.0249135 0.0390596 0.0323329
0.0401137 0.0933035 -0.00871241
0.0212764 0.0693138 -0.0277613
-0.000499443 0.114191 0.0415203
-0.0106993 0.061373 -0.0355475
-0.0284948 0.111359 -0.0178892
-0.00202044 0.0386496 0.0235231
-0.077532 0.159745 -0.0169143
0.00562336 0.034628 0.021452
-0.0616651 0.174109 -0.0575903
-0.0090473 0.168146 -0.0217175
-0.0255632 0.0589456 -0.0304089
-0.0674097 0.173701 -0.0580011
0.000140075 0.103071 -0.0225088
-0.0457101 0.131722 0.0089192
0.035312 0.0840703 -0.0177861
-0.06621 0.148552 -0.030869
0.0454962 0.0443878 0.000424365
-0.0107806 0.0770662 -0.0381287
-0.0895137 0.135181 0.0391853
0.0191746 0.064523 0.0487473
-0.0497129 0.165582 0.00102101
0.0236022 0.115739 -0.0107408
0.0411698 0.0806497 0.0314486
-0.0496209 0.0517545 -0.00857532
0.0259555 0.123153 0.0178233
0.059075 0.0677442 0.0201625
0.000924532 0.100829 -0.0227814
0.00679871 0.128004 -0.00391746
-0.0455099 0.155064 0.0077969
-0.0156486 0.0481142 -0.0300898
-0.0805618 0.101855 -0.00659893
0.00842312 0.0385006 0.0330183
-0.00979029 0.0798633 -0.0379189
-0.081252 0.0993542 0.0322994
0.00296667 0.0390863 0.0277676
-0.0238007 0.0741774 -0.0380398
-0.0879015 0.148743 0.00925863
-0.0177987 0.0336176 -0.0248428
-0.0135206 0.0432479 0.0507363
-0.0714887 0.0860678 0.0412957
-0.092065 0.118755 0.0273051
-0.0663455 0.040996 0.0121932
-0.0682563 0.169911 -0.0313673
0.00812049 0.107282 -0.0201059
-0.0252565 0.120536 -0.00953586
0.0327067 0.0659933 0.0401778
0.0049172 0.0339971 0.00916661
-0.0293563 0.0761839 -0.0345604
-0.0863368 0.153207 0.0174967
-0.0749441 0.129634 -0.00796551
-0.0468614 0.102797 -0.0212675
-0.0737025 0.144377 -0.00986626
-0.0652746 0.0378654 0.0394026
0.00128503 0.0655494 -0.0343406
0.0288964 0.120556 0.0189249
-0.0557862 0.0854763 -0.0214113
-0.0524335 0.115217 0.0341034
-0.0218764 0.182954 -0.0200262
-0.0646993 0.150616 -0.0327557
-0.0531501 0.13113 0.0336749
-0.0653015 0.169027 -0.0374543
0.0455601 0.0904134 0.011166
-0.0864043 0.111678 0.00530063
-0.0672538 0.152901 0.0344187
-0.0124889 0.118271 0.037774
0.0214143 0.0463213 0.0412437
0.0274031 0.12156 0.0212208
0.00749212 0.131495 0.0152913
-0.0136101 0.17129 -0.0181213
-0.053977 0.0335099 0.00491422
0.00691185 0.038861 0.0287775
-0.0115046 0.0688083 0.054897
-0.0194597 0.165415 -0.0107679
-0.00759694 0.039172 -0.0259394
-0.0286059 0.0564269 -0.0233938
0.0292911 0.0364248 0.021021
0.033595 0.0660055 0.039722
-0.0318681 0.105727 -0.021166
-0.0170991 0.0383232 0.0225362
-0.0902473 0.132271 0.00623314
-0.0218136 0.116051 -0.0148581
0.0433462 0.0818009 -0.00379375
0.0348501 0.112087 -0.000408122
0.00783805 0.034796 0.0434029
-0.086438 0.0832915 0.00949498
-0.00774122 0.115628 -0.0165086
-0.0106374 0.0466553 -0.0295813
-0.0523357 0.136679 0.027812
-0.0896495 0.146064 0.0111487
0.0159012 0.0347663 0.0342789
-0.018937 0.178659 -0.0169738
-0.0624367 0.153758 -0.0135798
-0.0569361 0.046073 0.0125834
-0.0607941 0.143953 0.0367655
-0.0705109 0.148356 0.0407257
0.0101565 0.0860282 0.0551829
-0.0754549 0.158227 -0.0249553
-0.0266127 0.121438 0.026306
-0.0304883 0.0574252 0.0370157
-0.00949915 0.105857 0.0435217
-0.073564 0.156227 0.0174776
-0.0534996 0.0987387 0.0427565
0.0285253 0.065965 0.0429423
-0.0529962 0.0461208 0.0157076
-0.0532414 0.127751 -0.00500041
-0.0689711 0.136995 -0.00816407
0.0274179 0.122108 0.0155174
-0.0617811 0.042326 0.0146867
0.0139515 0.0933972 -0.0268828
-0.00381736 0.131135 0.0125816
-0.0843731 0.110309 0.0377873
-0.0869607 0.111738 0.00633151
-0.0738377 0.169377 -0.0450494
0.02126 0.0748992 -0.0268979
0.0134712 0.0936014 0.0511282
-0.0165661 0.163924 -0.0100865
-0.0389846 0.1533 -0.00797514
0.00296745 0.0390391 -0.00510833
-0.0847959 0.147297 0.0357863
-0.0875345 0.0914089 0.00446769
-0.0642686 0.171043 -0.0609844
0.0479819 0.0723794 0.00739708
-0.0764447 0.154164 -0.0158984
-0.010275 0.170544 -0.0261793
-0.0562656 0.0335637 0.0133743
-0.018238 0.0985224 -0.0244062
0.00171621 0.126464 -0.00619605
-0.0268181 0.0385613 -0.0106363
0.0595629 0.058084 0.0191786
-0.0751542 0.0995011 0.0375123
-0.0645394 0.0596403 0.015406
0.0298569 0.0835122 0.0432289
-0.0594807 0.0398598 0.0207095
0.00134414 0.0524973 -0.030237
-0.0343725 0.0357923 0.047703
0.0110822 0.113195 -0.0179885
0.000500084 0.12107 0.0367737
-0.0759966 0.0994807 0.0369297
-0.0637125 0.0705931 -0.0131267
-0.0822784 0.0951136 -0.0065238
-0.0223249 0.0386602 -0.0135496
-0.0444648 0.0945053 0.0429498
-0.0759966 0.0994807 0.0369297
-0.0622051 0.0333895 -0.00205752
-0.0737191 0.152664 -0.0318934
-0.0592916 0.0381211 0.04617
-0.0348248 0.0473223 0.0413292
0.0544559 0.0679536 0.0254119
-0.0267099 0.0794912 0.0492298
-0.0755038 0.138646 0.0489499
0.0341142 0.0605859 0.0386759
-0.0235246 0.079724 0.0545007
-0.025189 0.156576 -0.00769163
-0.0655471 0.154522 0.00288522
0.0578227 0.0710073 0.0178627
0.0443985 0.0748779 -0.000803542
-0.0221494 0.0384504 -0.005885
-0.0451488 0.0335546 0.00486717
-0.074881 0.117904 -0.00727699
-0.016526 0.0387631 -0.00875803
-0.0495985 0.048927 -0.00879829
-0.0704978 0.124601 0.053003
0.00749418 0.095088 0.0520151
-0.0611865 0.0441212 -0.00432669
0.000449556 0.130948 0.00412356
0.00851416 0.06604 0.0550264
-0.0502435 0.0335698 -0.00160666
0.0207654 0.126697 0.0144664
-0.0663511 0.0350877 0.0310837
-0.0274963 0.100194 0.0434874
-0.0474794 0.0917467 0.0438194
-0.0709342 0.128224 -0.00904999
0.0199779 0.0885978 -0.0258535
0.0273486 0.110085 0.0362063
-0.0217032 0.0597401 -0.0334972
-0.0292922 0.117943 -0.0127907
-0.0657843 0.167288 -0.0290298
-0.0371849 0.0430027 -0.0273252
-0.00216392 0.0992947 0.0503069
-0.0096474 0.0481504 -0.030386
-0.0306891 0.120328 -0.00923215
-0.00949197 0.121025 0.0361236
0.0319925 0.114417 -0.00326976
0.0236771 0.0956901 -0.0213272
-0.0334971 0.119329 0.0299275
0.0423969 0.0451283 0.0286278
-0.0365021 0.101484 0.0413625
-0.0669793 0.134061 -0.00834965
0.0241906 0.121901 0.0271611
0.0571307 0.0508797 0.0151878
-0.0849288 0.12649 -0.00334252
-0.0188778 0.168283 -0.0134663
-0.0609083 0.169363 -0.0596932
-0.0479423 0.118344 0.0305757
-0.0599536 0.123822 -0.00839074
0.0139278 0.129741 0.0148027
0.0138422 0.0901622 -0.0294996
-0.0601957 0.0341396 0.0262143
-0.00448954 0.122402 0.0358368
-0.0614661 0.174127 -0.0585981
0.0202805 0.12337 -0.00295598
0.0366057 0.0954909 0.0355184
0.0541025 0.0616928 -0.00172111
-0.0843726 0.0952582 -0.00357113
-0.0801245 0.0746668 0.000525034
0.0415013 0.104244 0.010161
-0.0482395 0.144672 0.00644062
-0.0404209 0.150087 -0.00469474
0.0456324 0.0875991 0.0131626
-0.0815485 0.124491 0.0516101
-0.0298783 0.0719759 -0.0315267
0.00150698 0.0801002 0.0571866
-0.0531749 0.0487012 0.0129919
-0.0624928 0.0775409 0.0419345
-0.0659473 0.151954 -0.0393992
0.020878 0.117607 -0.0107498
-0.0430221 0.128224 0.015861
-0.0881508 0.144556 0.0335371
-0.00562206 0.0388337 0.0298422
-0.0288479 0.0578621 -0.0233922
0.0342539 0.0387023 0.0236157
0.0322191 0.117688 0.00875184
-0.00949197 0.121025 0.0361236
-0.0852791 0.132127 -0.000702015
-0.0808524 0.0720445 0.00954101
-0.0419839 0.128576 0.0133734
-0.00400483 0.123769 0.0343163
-0.00515103 0.127241 0.0295045
-0.0464951 0.116619 0.0318843
0.00548074 0.111376 0.0414038
-0.0587501 0.0482189 0.00571238
-0.0218218 0.0854612 -0.0381675
-0.0360974 0.127648 0.0124754
-0.0484961 0.0987927 0.0435149
-0.0494861 0.156424 0.00985611
0.0109143 0.034258 -0.00287102
-0.0568299 0.143897 0.0319274
-0.0664067 0.0336797 0.00582425
-0.0420636 0.159404 0.00394669
-0.0652865 0.1555 -0.0467797
0.0267042 0.122545 0.0181085
-0.045123 0.157633 -0.00869072
-0.0166904 0.169787 -0.0155577
-0.0704211 0.15543 0.027334
-0.0399008 0.128531 0.0110866
-0.0857724 0.0872268 -0.000524277
0.0602482 0.0581464 0.0141691
-0.00663677 0.109707 -0.0221975
0.0407616 0.105622 0.0111617
-0.0311279 0.168264 -0.00654632
-0.0752605 0.157705 -0.0064221
-0.0511359 0.0502476 0.0206335
0.0221671 0.123584 -0.0006811
-0.0776493 0.0787462 -0.00818258
0.0533817 0.063336 -0.00140725
-0.0153636 0.128543 0.00690549
0.0346034 0.0592134 0.0376264
-0.0577888 0.0439091 -0.00660137
-0.0315011 0.101567 0.0426346
-0.0845698 0.0831877 0.0245094
-0.078629 0.155228 0.0230232
-0.000607851 0.0448652 -0.0263872
-0.0504724 0.141671 0.0164028
-0.0184804 0.0543192 0.0487134
-0.0351946 0.125334 -0.00338173
-0.0719379 0.131113 -0.00828186
-0.0643746 0.145275 -0.0151376
0.0311432 0.0373381 0.0223917
-0.0112757 0.0392934 0.0501019
-0.00348603 0.0489394 0.050606
-0.0355052 0.102861 0.0407303
0.0319638 0.0780558 -0.0197042
0.0120392 0.129427 0.0226627
0.0095961 0.0354723 -0.00987583
-0.0216077 0.0350207 0.0511065
-0.0494919 0.154959 0.0103413
0.0440337 0.0734407 -0.000804833
-0.0557857 0.0840569 -0.0214422
-0.0393381 0.149359 -0.00118821
-0.0898767 0.135147 0.0252168
-0.00826521 0.0380456 0.0491273
0.0319575 0.0889685 0.042819
-0.0129037 0.181603 -0.0240442
0.0405174 0.0829825 -0.0107762
-0.0164899 0.0602176 0.0520938
-0.0431187 0.159159 -0.0099383
0.0509435 0.0554131 0.029582
-0.0204991 0.12085 0.0318342
0.00990869 0.048971 0.0492516
0.0259403 0.1091 -0.0135959
-0.0486801 0.12235 -0.0113455
0.0093588 0.0524416 -0.0295377
0.0117524 0.0352863 0.00381322
-0.0512935 0.0556822 0.0305914
-0.027617 0.125471 0.0155889
-0.0330903 0.15925 -0.0128209
-0.0856054 0.119006 0.0487694
-0.0432671 0.0465873 -0.0113888
-0.0472066 0.033531 -0.00644781
0.0428754 0.100088 0.00417324
0.0450177 0.0875447 0.000184881
0.0453927 0.0833662 0.00319518
0.0218587 0.0714183 0.0491823
0.00821609 0.0823703 -0.0328688
-0.0905968 0.140629 0.0221693
-0.000697567 0.0641196 -0.0342689
-0.0298676 0.0916468 -0.0252289
-0.0317212 0.0350332 0.0489115
-0.0596514 0.142474 0.0348633
-0.0309617 0.044825 -0.0281993
-0.0672224 0.0339784 0.0107486
-0.0356427 0.112876 -0.017464
-0.0311219 0.087675 -0.0275557
-0.0364911 0.0662596 0.041455
-0.021742 0.0389771 0.0371835
-0.0379623 0.174733 -0.00453553
0.0400386 0.0871415 -0.0117889
0.0184753 0.100361 0.0464541
0.0214666 0.0975514 0.0465681
-0.0346312 0.0752701 -0.0214845
0.0499455 0.0733656 0.0164225
0.0133357 0.128238 -0.000223601
0.00956448 0.122301 -0.0117968
0.0237846 0.0476926 0.0394013
-0.0415045 0.0548576 0.0396938
-0.0308235 0.12443 -0.00028071
0.017486 0.112589 0.0378808
-0.087913 0.0900756 0.00446758
-0.0418449 0.0971142 -0.0220611
-0.0692662 0.0692944 0.0324707
-0.0108037 0.0827117 -0.0384206
0.0354333 0.111001 -0.000827134
-0.0891584 0.142048 0.0331685
-0.0152331 0.178626 -0.0269991
-0.00263717 0.12924 0.026005
-0.0629014 0.0384346 0.017326
-0.00428899 0.0367463 -0.0156853
-0.0606157 0.0459479 0.0402046
-0.0776353 0.15693 -0.0189052
-0.0230608 0.0594124 0.0433799
-0.0458982 0.107069 -0.0194756
-0.0237986 0.0784163 -0.0381462
-0.0904683 0.135081 0.0142287
0.0412927 0.101424 0.0211601
-0.0618594 0.154827 0.00385225
-0.0574718 0.156359 0.0101234
-0.0136075 0.0420889 -0.0267571
-0.0291607 0.171183 -0.0175503
-0.0326141 0.0638332 -0.0174509
-0.0667152 0.0419014 -0.00231002
-0.0495545 0.0404082 -0.0113965
0.0134061 0.0767276 0.0545687
-0.0243712 0.122748 0.0255975
-0.0653495 0.0459059 0.00467835
-0.0770892 0.107143 -0.00760422
0.0333657 0.0835669 0.0412915
0.0604235 0.0678625 0.0131519
-0.0643705 0.154697 0.0294695
-0.0607911 0.0810335 -0.0194373
-0.0638617 0.125566 0.0463833
-0.0480228 0.144604 0.00545108
-0.0463678 0.13079 0.00400616
-0.0917675 0.126924 0.040336
0.0072822 0.0344718 -0.00192729
-0.00860205 0.0406149 -0.0260948
-0.0495645 0.0375773 -0.0119604
-0.00150357 0.0647954 0.0567431
-0.0513173 0.146268 0.0144074
-0.0639661 0.0690471 0.0355624
-0.0354607 0.154847 -0.00919588
-0.0796191 0.0899783 0.0351979
-0.0388448 0.0971399 -0.0223049
-0.0344283 0.0338921 0.0139586
-0.00587295 0.130011 0.00319127
-0.0493632 0.1301 -0.00139208
-0.08839 0.0995952 0.00742201
-0.0299566 0.122268 0.0236125
-0.0190093 0.100114 -0.02409
-0.0902973 0.114585 0.00733567
-0.0918049 0.121541 0.0434848
-0.0468308 0.0941893 -0.021914
0.0285746 0.0351013 0.0166057
-0.0618668 0.165619 -0.0600772
-0.0384866 0.112537 0.0353486
-0.0640118 0.135519 -0.00771971
-0.0649027 0.179945 -0.0575726
-0.00855639 0.121127 -0.0123669
-0.0221316 0.122996 0.0264112
0.0425314 0.0623712 0.0287546
0.0393814 0.0780345 0.0341058
-0.0328776 0.105721 -0.0208169
-0.00650569 0.0675101 0.0559953
-0.0882017 0.0949941 0.0238463
-0.0404902 0.0790417 0.0431478
0.0252898 0.0704815 -0.0246106
-0.0240392 0.0380418 0.0177619
0.0064767 0.115498 0.0396093
-0.0709402 0.170831 -0.0510269
-0.0445078 0.128204 0.0197407
-0.00367406 0.0555102 -0.0326331
0.0425127 0.0872289 0.028142
-0.0777833 0.0694772 0.0182331
-0.0633642 0.142485 0.0383017
0.0230175 0.0903576 -0.0236845
-0.0617195 0.0669875 0.0343055
-0.058966 0.123797 -0.00809452
0.0152687 0.0779357 -0.0299953
0.0125555 0.034405 -0.0178251
-0.0862104 0.107661 0.0103578
-0.0132802 0.102485 0.0435875
-0.0852334 0.0992128 0.0278144
0.0382996 0.103126 -0.00513692
-0.0829976 0.133839 -0.00205551
-0.0488714 0.104198 -0.020417
0.0220423 0.0388246 -0.00567731
0.0112951 0.130595 0.0166808
-0.0306755 0.0409906 0.0514223
-0.00521106 0.038426 0.0176436
-0.0869577 0.133848 0.0453706
0.0433285 0.0874073 -0.00479371
0.00450187 0.0575756 0.0536585
-0.013526 0.162053 -0.0127433
0.00401707 0.125848 -0.00755459
0.00466861 0.0365644 -0.00250089
-0.0743185 0.067053 0.0192856
-0.0646154 0.0457888 0.00269728
-0.0809073 0.123633 -0.00507492
-0.0398566 0.099981 -0.0216989
-0.0677628 0.079419 -0.0170759
0.0220864 0.122759 -0.00230579
0.0203853 0.049027 -0.0227929
-0.0723659 0.100858 0.0389128
-0.0672464 0.173921 -0.0582812
-0.0815821 0.0803018 0.0303913
-0.0531678 0.0503031 -0.00638771
-0.0175612 0.186044 -0.0184493
-0.0141713 0.0391912 0.0511685
0.0226059 0.0375679 0.034289
-0.0141356 0.103403 -0.0235224
-0.0123281 0.0344052 -0.018857
-0.080968 0.0967089 0.0335048
0.0567172 0.0621967 0.0256596
-0.0724467 0.0361675 0.00255211
0.000535895 0.0548656 0.0545076
-0.0659868 0.0418098 -0.00430732
0.00895989 0.0979651 -0.0237371
-0.048723 0.134043 0.0239744
-0.0584156 0.0459799 0.0422363
-0.0342487 0.0752311 -0.0224883
0.00247063 0.0977635 0.0514765
0.0321446 0.0360609 0.0164637
-0.0393167 0.0432044 -0.0243027
-0.0810222 0.100509 -0.00657927
-0.0191672 0.0596981 0.049368
-0.0514988 0.090386 0.0447021
-0.0799858 0.150056 0.000166757
0.0305338 0.0929359 0.042541
-0.0765343 0.0681368 0.0143622
-0.0611133 0.149657 0.036321
-0.070992 0.0395652 0.00837515
-0.0209835 0.159643 -0.00415092
0.0149683 0.113515 -0.0163113
-0.0289938 0.16114 -0.00164375
-0.00536465 0.129031 -0.000823415
0.0279524 0.103456 0.0388242
-0.0882956 0.116235 0.0458325
-0.0333602 0.0339348 0.0195439
-0.0154767 0.0545272 0.0507241
0.0209713 0.0966458 -0.0223043
0.0418096 0.0482673 0.0320498
-0.0914492 0.117418 0.0293041
-0.0785372 0.168054 -0.0329755
-0.0618764 0.138649 -0.0067701
-0.0216083 0.039391 -0.0287125
-0.0760085 0.141318 -0.005968
0.0552517 0.0720728 0.0198735
0.0224871 0.0436168 0.0410219
-0.0655548 0.153788 -0.00146085
0.0378536 0.10688 -0.000832307
-0.0797776 0.115912 0.0485816
-0.0645013 0.0774777 0.0413253
-0.00149685 0.0456811 0.047029
0.00736856 0.0479637 -0.0273222
0.0181014 0.0354956 -0.0136744
-0.0606157 0.0459479 0.0402046
0.0436616 0.0987354 0.0121603
-0.0735209 0.134443 0.0506533
-0.0266334 0.0505574 -0.0257305
0.0234098 0.0871372 -0.0242525
-0.0455151 0.0533187 0.0381544
0.044803 0.0945847 0.0121616
-0.0883931 0.1336 0.00326444
-0.00951396 0.0647096 0.055646
0.0510603 0.0729911 0.0094016
-0.0513349 0.057067 0.0306313
-0.0878362 0.112676 0.0422322
-0.00918339 0.033864 -0.0215021
0.0337096 0.115696 0.0178949
-0.0638509 0.0597328 0.00826283
-0.0825971 0.103328 -0.00360734
-0.080258 0.0859229 0.0345477
-0.0655235 0.0347285 0.0315692
-0.00750518 0.0661146 0.0558703
-0.0708338 0.143978 -0.0149516
-0.0365293 0.120277 -0.0112077
0.041497 0.0527902 0.0324777
0.017703 0.0913635 0.0485583
-0.0656191 0.164967 -0.0232289
-0.00853122 0.0430617 0.0490142
-0.0195177 0.0933631 0.0529187
0.0541727 0.0734662 0.0150335
-0.0633751 0.0344193 0.0288044
-0.0274904 0.108416 0.0392888
-0.0839142 0.0843714 -0.00355138
-0.0198767 0.105865 -0.0225965
-0.0414689 0.101488 0.0411988
0.0415402 0.0928967 -0.0067838
-0.0758891 0.119352 -0.00728174
0.0372544 0.109701 0.0220387
-0.0649024 0.119454 -0.00881631
-0.0094927 0.0619497 0.0558121
-0.058487 0.113928 0.0361856
-0.0756712 0.0759423 -0.00884701
-0.0174974 0.103031 0.0436129
-0.01349 0.11138 0.0414506
0.0278403 0.121636 0.00711658
-0.0608025 0.132515 0.0384279
-0.0561672 0.0336533 0.0186553
0.0202561 0.0791555 -0.0271913
-0.0295002 0.0688631 0.0391758
0.0204112 0.0371925 -0.00568428
-0.0281692 0.171188 -0.018077
-0.0645186 0.0597262 0.00993302
0.0189265 0.119915 -0.00924366
-0.075448 0.162419 -0.0329687
-0.0932956 0.12823 0.014251
-0.063934 0.169417 -0.04458
-0.0861503 0.0818963 0.00748815
0.0181426 0.117476 -0.0126083
-0.0623736 0.164689 -0.0415928
-0.0188061 0.081321 -0.0390856
-0.0752643 0.0941545 0.0391883
-0.0023893 0.0424447 0.047211
0.0293267 0.120376 0.00767428
-0.043786 0.126623 -0.00583839
0.0073096 0.0609801 -0.0307365
-0.0622566 0.0709345 0.0378148
-0.0788399 0.114858 -0.00418456
-0.0438717 0.105649 -0.0205239
-0.0623235 0.139333 -0.00679766
0.060054 0.0678303 0.0101401
-0.0190478 0.0404047 0.0529202
-0.0545051 0.119806 0.0369329
0.0369413 0.0618853 0.0357448
-0.0838768 0.108986 0.0253683
-0.0472721 0.035073 0.043832
-0.0609254 0.0454597 -0.00231147
-0.054786 0.147744 0.027387
-0.0619477 0.0629617 0.0272004
0.0106503 0.130383 0.00504386
-0.013259 0.121231 -0.0103976
-0.0689521 0.151509 0.0368557
-0.0596957 0.14074 -0.00502874
0.0383745 0.038179 0.01581
-0.067513 0.132633 0.0463034
0.00898388 0.131012 0.0072855
-0.0847946 0.140657 0.0430258
-0.0514117 0.134659 0.0288827
-0.00451507 0.0519264 0.0531932
-0.00549946 0.0842482 0.0569765
0.0125119 0.107097 0.0421465
0.0415962 0.101461 0.0191676
-0.0162255 0.177147 -0.0257279
0.0347163 0.0544411 -0.00865089
-0.0884108 0.0928321 0.00744302
-0.0179779 0.15947 -0.0103936
0.0485082 0.0624718 0.0300814
0.015055 0.123588 -0.00721903
-0.0126798 0.126321 -0.00380105
0.0287557 0.0348074 0.0132587
0.0195371 0.122997 -0.00457304
0.000498438 0.0938703 0.0551155
-0.00479094 0.0798443 -0.0373862
-0.0247746 0.0385687 -0.0102357
0.0416966 0.0899224 0.0287651
-0.0632995 0.045657 0.000708444
0.00248872 0.118285 0.0387448
-0.00445554 0.112864 -0.0195829
0.0303733 0.115414 -0.00438737
0.0410592 0.0985428 -0.00379645
0.0174063 0.0417452 -0.0219906
0.0399282 0.041091 0.0244564
-0.00968478 0.0584187 -0.0340646
-0.0733924 0.0656461 0.018954
-0.00591514 0.12799 -0.00376372
0.0161864 0.128058 0.00281004
-0.0424855 0.09447 0.0423231
-0.0725318 0.101313 0.038599
-0.0574243 0.0613459 0.0260206
-0.0889791 0.0915153 0.00944503
-0.0661935 0.155092 0.00556387
0.0349072 0.0875927 0.04003
-0.0556551 0.0575 -0.00342108
-0.081698 0.0939818 0.0329068
0.0158474 0.128954 0.00837281
0.0600903 0.0608951 0.0181821
-0.0485608 0.164 0.00493162
-0.0575406 0.0387439 -0.00960491
0.0398757 0.096658 0.0297176
0.044965 0.0903773 0.0181662
0.0222732 0.12205 0.0293193
-0.0683095 0.178205 -0.0587107
-0.0201874 0.0711262 0.0528634
-0.0338028 0.122413 -0.00742547
-0.064515 0.0945534 0.0434117
0.0318733 0.11664 0.0243218
-0.0278605 0.124718 0.0184442
-0.0158011 0.0388262 -0.0105326
-0.0713089 0.156055 0.0109968
0.0284708 0.0565571 -0.0188308
-0.0448888 0.108464 -0.0189265
-0.0587854 0.0839965 -0.0207846
0.00840449 0.0360838 -0.0229864
-0.0816839 0.0830971 0.0318157
-0.0655034 0.106997 0.0388261
-0.0805084 0.121673 0.0499202
0.0329357 0.0710876 -0.0177809
-0.0457178 0.0724199 -0.0170809
-0.0450772 0.0337168 -0.000691764
-0.0759299 0.126701 -0.00794305
-0.089421 0.135156 0.0282104
-0.0136243 0.0450811 -0.0280269
0.0344672 0.111064 -0.00366583
-0.0788715 0.122217 -0.0060966
0.00492538 0.111581 -0.020193
-0.00402179 0.129762 0.0240423
0.037465 0.0434297 0.0291248
-0.0625323 0.1568 -0.0366082
-0.0718018 0.158195 -0.0399213
0.00931098 0.130351 0.0216675
-0.0661021 0.155727 0.025928
-0.082872 0.154403 0.0201091
-0.0814751 0.118981 0.0489466
-0.0788564 0.173596 -0.0449928
-0.0556704 0.0335434 0.000932366
0.0320122 0.117952 0.0129635
0.0264606 0.0663192 -0.0226274
-0.0610724 0.144529 -0.00434459
-0.0465703 0.0490167 -0.00974944
0.00550651 0.0897139 0.0554063
0.0172994 0.0665713 -0.0290602
-0.00886334 0.103392 -0.0235214
-0.0505191 0.112725 -0.0172384
0.0585617 0.0692487 0.0195963
-0.0668807 0.112599 0.0436137
-0.0566945 0.126945 0.0390945
-0.0679219 0.123838 -0.00890383
-0.0660116 0.154522 0.0303582
-0.0424147 0.0344885 0.0314161
-0.0344784 0.0932112 0.0445123
-0.0314741 0.053189 0.0369367
-0.0203373 0.0610131 0.0476733
-0.0839703 0.0843113 0.0284366
0.0394872 0.0513548 0.03224
-0.0884146 0.113764 0.0250911
-0.00687105 0.104506 -0.0230032
-0.0556472 0.0657358 0.0349277
-0.00806953 0.0988363 -0.0267114
-0.0672997 0.0435653 0.00884843
-0.053406 0.12345 -0.00838645
-0.0660379 0.0349778 0.0329828
0.0299119 0.0491593 0.0359714
-0.0621097 0.156825 -0.0345957
0.0235192 0.107033 0.0392433
-0.0514947 0.0819216 0.0442721
-0.00588737 0.108814 -0.0225516
0.0111873 0.0893276 -0.0308633
-0.039718 0.0695625 -0.0162922
-0.0407686 0.0811968 -0.0203079
0.0102029 0.0779579 0.0551886
-0.0701178 0.170154 -0.0291958
-0.0140554 0.126614 -0.00210251
-0.0639806 0.135327 0.039077
-0.0266239 0.0463597 -0.0270834
-0.0601798 0.155861 0.0135147
0.0410646 0.07659 0.0312229
-0.0683512 0.0607717 0.0117847
-0.0380707 0.123893 0.0251235
-0.072928 0.148723 -0.0327819
-0.0543257 0.121248 0.0372193
0.0295472 0.11806 0.0262972
-0.0365494 0.127902 0.0108341
-0.0197337 0.0627381 -0.0357065
-0.0312005 0.162424 -0.00314295
-0.0663511 0.0350877 0.0310837
-0.0524537 0.0504524 0.0306643
-0.0757782 0.149978 -0.0188682
-0.0738862 0.104992 -0.0108534
-0.00149662 0.114206 0.0415504
-0.056091 0.0334157 -0.00629765
-0.0719363 0.129668 -0.0086833
0.0152242 0.123558 0.0310525
0.0423481 0.0732982 -0.00579253
-0.0418874 0.108498 -0.0194287
0.0596647 0.0691741 0.016158
-0.0864962 0.112872 0.0280752
0.0128104 0.0891816 -0.030491
-0.0384866 0.112537 0.0353486
-0.0356761 0.0343506 0.0364799
-0.00896496 0.0383664 0.01874
-0.0451234 0.0336213 -0.00611106
-0.0213358 0.165379 -0.00997448
0.0339472 0.0368914 0.0179028
0.0192101 0.0791931 -0.0277308
-0.0204991 0.100239 0.044421
-0.0833215 0.153324 0.00972396
-0.062529 0.150617 -0.0195776
-0.049291 0.131272 -0.000642386
0.0336358 0.0725575 -0.0168317
-0.0435029 0.119128 -0.0140097
0.00550411 0.0731036 0.0564845
-0.0896944 0.133694 0.0395953
-0.0154921 0.0382096 0.0157388
0.000468869 0.0388702 -0.00172096
0.0555021 0.0730293 0.0140468
-0.0516205 0.0604369 -0.00991236
0.0383075 0.041189 0.0258499
0.0243931 0.0503998 -0.0217952
-0.0727258 0.157431 -0.00265266
-0.0312754 0.118165 0.0306394
-0.0416936 0.0652006 -0.0145392
-0.0331798 0.0779303 -0.0275261
-0.0799154 0.12806 -0.00573177
-0.00786973 0.104508 -0.0230207
-0.074576 0.0901236 0.0400162
0.00549045 0.0459551 0.048539
-0.0852337 0.104506 0.0248257
-0.0465636 0.146777 -0.00183655
-0.0167958 0.0799195 -0.0388883
-0.0677174 0.0409231 -0.00173026
-0.074576 0.0901236 0.0400162
-0.0217097 0.181473 -0.0209735
-0.0458316 0.03478 0.00723173
-0.0721635 0.113702 0.0503204
-0.012301 0.110982 -0.0195491
0.0114915 0.130592 0.00962923
-0.0493523 0.128134 -0.0033313
-0.0144894 0.112737 0.0404341
0.0314571 0.0378867 -6.50808e-05
0.0439772 0.079046 -0.00278888
0.0365208 0.0713424 0.036933
-0.088653 0.0982606 0.00741366
-0.0172971 0.0386165 -0.00691824
-0.0524951 0.0747684 0.0423102
-0.000694781 0.0597985 -0.0333207
0.0420458 0.0817019 -0.00677657
0.0114184 0.0389206 -0.0228692
0.0148603 0.0562539 0.0494599
-0.0301445 0.169695 -0.0171502
-0.0748382 0.0978559 -0.0133191
-0.04085 0.0985381 -0.021696
0.0074278 0.117326 -0.0164147
0.00830607 0.0917456 -0.031199
-0.0639777 0.155958 0.0237716
-0.044501 0.0562098 0.0390177
0.0152572 0.124805 0.0295869
-0.0842393 0.107513 0.00238784
-0.0417663 0.162365 0.00442786
0.000474346 0.0977989 0.0522897
-0.0371937 0.168177 -0.0134205
-0.0417874 0.128546 0.00302224
-0.0682817 0.156606 -0.0532672
-0.0915067 0.129676 0.0312386
-0.0228186 0.161021 -0.00330981
-0.0850735 0.0819457 0.0214598
-0.0111043 0.0366055 0.0502176
0.0124693 0.0962821 0.0494059
0.0343769 0.112004 0.0266888
-0.0265911 0.123944 0.0203778
0.0461205 0.0704224 0.0223322
-0.0619388 0.0647772 0.0309092
0.00741372 0.0360842 -0.0231635
0.00123277 0.0783068 -0.0354173
0.0453399 0.0504735 -0.00539794
-0.0378518 0.0985762 -0.0221892
0.0154246 0.0685991 0.0521564
-0.0584156 0.0459799 0.0422363
-0.0241311 0.0384069 -0.0174035
0.0518495 0.0464359 0.0201911
-0.0778403 0.10982 0.0432074
-0.0314998 0.155167 -8.72409e-05
-0.00431394 0.0929621 -0.0345661
-0.0666897 0.0735998 -0.0145924
0.0118426 0.0562933 0.0521284
0.034843 0.0862437 0.0399362
-0.0182635 0.180096 -0.0244849
-0.0110742 0.123419 -0.00875247
-0.0355139 0.176726 -0.00796363
-0.0858283 0.1008 0.00139713
0.0336777 0.107392 0.0312726
-0.0746094 0.14858 -0.0188631
-0.0164994 0.107189 0.0421238
-0.0512591 0.0544504 0.0206222
-0.064746 0.155508 0.00899366
-0.0699065 0.110817 -0.0106385
-0.0799294 0.154987 0.0226092
-0.0713317 0.151217 -0.0439201
-0.0315055 0.0689302 0.0397623
0.0396568 0.0815034 -0.0117853
-0.0342132 0.0345231 0.0384015
-0.0627925 0.0838575 -0.0191674
-0.0246065 0.0394112 -0.0290873
-0.0288938 0.180785 -0.00982491
-0.0157421 0.0686009 -0.0381423
-0.0624591 0.155071 0.0054624
0.0182356 0.126981 0.00216332
-0.0799141 0.109193 0.0343277
-0.0440333 0.0423079 -0.0173091
-0.0364993 0.0733348 0.0420574
0.00803725 0.125889 0.0313
0.0082766 0.0667723 -0.0317926
-0.00249575 0.0389742 0.0303561
-0.0197736 0.0998405 0.0442778
0.0381002 0.078079 0.0357853
-0.0446938 0.0665983 -0.0153032
-0.0921228 0.126953 0.0372491
-0.0583711 0.0614813 0.0257087
0.00716348 0.0343484 0.0202029
-0.0886136 0.0969805 0.0223931
-0.0789069 0.155396 0.0141592
-0.045035 0.131096 0.00921538
0.0301667 0.116977 -0.00204442
-0.0445267 0.0423569 -0.0163056
0.00826699 0.0696219 -0.0321852
0.0443256 0.0931523 0.0201621
-0.0139477 0.0625843 0.0539847
-0.0157734 0.075693 -0.0388238
0.0221671 0.0444704 -0.016762
-0.0576833 0.0660478 -0.00944709
-0.0883977 0.0983242 0.022387
-0.0298476 0.105726 -0.0219826
-0.0470988 0.0345244 0.0321531
0.0222809 0.11936 0.0323905
-0.0125037 0.0730609 0.0559849
-0.0275566 0.0890776 0.0469337
-0.0127937 0.0386426 -0.0153707
-0.0284952 0.105677 0.0407009
-0.0260174 0.0351047 -0.0290083
0.0393896 0.106975 0.00316583
-0.0833313 0.0829966 0.0292517
0.0314417 0.115539 0.0270138
-0.0332433 0.126938 0.0135159
-0.0279795 0.0577645 -0.0254
-0.0627767 0.112367 0.0371562
-0.0434472 0.0344528 0.0312293
-0.0800017 0.0786467 -0.00556567
-0.0166832 0.0525719 -0.0322771
-0.0212115 0.177139 -0.0220322
-0.0624226 0.152205 -0.0125757
-0.0729148 0.110726 -0.0089954
-0.0710897 0.0678996 0.0280309
-0.0377888 0.0855996 -0.0220857
-0.0523382 0.161184 -0.00281855
-0.0445267 0.0423569 -0.0163056
0.0418577 0.100066 0.0211691
-0.0297799 0.106834 -0.0211406
0.048521 0.043083 0.00923259
-0.0516987 0.131736 -0.00321408
-0.0557216 0.125528 0.0387388
0.0404558 0.0643575 0.0302495
-0.0320536 0.0356449 0.0500425
0.0299175 0.0524736 -0.0157475
-0.0758819 0.156006 0.016671
-0.0165005 0.120964 0.0336371
0.0394872 0.0513548 0.03224
-0.0672962 0.0785128 0.0408262
-0.0875779 0.102333 0.0213648
-0.0427999 0.167662 -0.00952768
-0.023633 0.0478399 -0.0272396
0.0378948 0.0699732 0.0354084
0.00379349 0.0393361 0.0313217
-0.0211646 0.0933284 0.0517404
0.0092913 0.0739064 -0.0330363
-0.00272576 0.130091 0.00149765
-0.0577252 0.156918 0.00853143
0.0506634 0.0663167 -0.000433246
0.0445518 0.069148 0.0246508
-0.000496498 0.0549075 0.0548747
-0.0925078 0.121485 0.0292837
-0.0615271 0.0344278 0.0378839
-0.0186858 0.118957 -0.0119398
0.0207674 0.103342 -0.0194283
0.00198723 0.123051 -0.0105036
-0.0739579 0.13841 -0.00677972
-0.0222312 0.125137 -0.000350139
-0.0646169 0.109762 0.0377795
-0.0220745 0.169763 -0.0127977
-0.0823069 0.0748418 0.00552391
-0.0831522 0.148677 0.0355101
0.0521231 0.0734583 0.0172399
-0.0731886 0.149857 -0.036868
-0.0909512 0.147073 0.025026
-0.0630463 0.113863 0.0385547
-0.0886344 0.0949473 0.0228281
-0.0169788 0.106067 -0.0223329
-0.0431622 0.0422126 -0.0213185
-0.010186 0.0339025 -0.0217341
-0.0370306 0.151785 -0.00571407
-0.0274951 0.157765 -0.0111917
-0.0147714 0.163994 -0.0109737
-0.0247746 0.0385687 -0.0102357
0.0124903 0.101789 0.047403
-0.0115071 0.0801438 0.0578104
-0.0435747 0.127942 -0.00117905
-0.0744956 0.13026 0.0524093
-0.0489659 0.12587 -0.00699728
-0.0408255 0.0914222 -0.0231618
-0.0216491 0.0479362 -0.0281524
-0.0598028 0.0853759 -0.0202992
-0.0157228 0.0642918 -0.0372774
-0.0354498 0.0346389 0.0415402
0.00457646 0.108164 0.0418882
-0.0256858 0.0575487 -0.0293997
0.021311 0.123415 0.0275211
-0.0126098 0.0384695 0.0251301
-0.0862725 0.103636 0.0233541
0.0199962 0.120682 0.0326204
0.0201621 0.124133 -0.00175315
0.0503986 0.0446075 0.0172106
0.0286891 0.119649 0.00175522
-0.0529425 0.0516633 -0.00638853
-0.0694862 0.120387 0.0531587
-0.05149 0.104281 0.0405196
-0.0321871 0.0680263 -0.0214501
-0.0359493 0.125342 -0.00457539
-0.00449056 0.130995 0.0108991
-0.01069 0.0969192 -0.0307004
0.011955 0.0349898 0.0332703
-0.050989 0.121022 -0.0119137
-0.0624591 0.155071 0.0054624
-0.0238067 0.0899629 -0.0356649
-0.0132404 0.0420117 0.0507817
-0.0226679 0.0341396 -0.0206509
-0.0737025 0.144377 -0.00986626
0.0323797 0.117481 0.0145242
-0.0376499 0.0577418 -0.0112619
-0.0509634 0.152153 0.0121451
-0.0547576 0.161266 0.00105716
-0.0648099 0.0910089 -0.0186372
-0.0366224 0.0519804 -0.0105023
-0.0574937 0.0333307 -0.00285911
-0.0456556 0.126096 -0.00729728
-0.0450711 0.153185 -0.00674331
0.0319241 0.0700307 0.0408624
-0.093011 0.118839 0.0352993
-0.0697118 0.0764164 -0.0147262
-0.0247631 0.123128 0.0239793
-0.0164852 0.0870004 0.0567616
0.0159352 0.127804 0.0226817
-0.0384895 0.050603 0.0393394
0.00417139 0.0894659 -0.0333631
0.0300054 0.104778 0.0365239
-0.0595891 0.155231 0.0238846
-0.0197554 0.158352 -0.00754965
-0.050989 0.121022 -0.0119137
-0.0623164 0.153672 -0.0306063
0.0427229 0.10007 0.00318201
-0.0193315 0.182966 -0.0230088
0.00149278 0.115548 0.0405079
-0.0332179 0.0347336 0.0278325
-0.0620847 0.166243 -0.0515916
0.00227538 0.0668963 -0.0335609
-0.0246606 0.0422329 0.0539554
-0.0855482 0.149965 0.0308161
-0.0817249 0.153192 0.027965
-0.0237994 0.178657 -0.0117033
0.00400584 0.0386131 0.0458842
0.000791005 0.0398223 0.046536
-0.0670324 0.0672056 0.0312385
-0.0753594 0.113961 -0.00568407
-0.0904857 0.114242 0.0332623
-0.0333828 0.0807789 -0.0265175
-0.0705055 0.0343308 -0.00278598
-0.0545346 0.125365 -0.00640975
-0.0282394 0.087664 0.0462444
-0.0310964 0.125815 0.0157855
0.00494458 0.0356784 0.0456125
-0.0639066 0.158701 -0.0499459
-0.025008 0.0334859 -0.0261337
-0.0464892 0.117969 0.0304809
-0.0737507 0.0835282 -0.0152437
0.0214416 0.0362735 0.0322576
0.0357112 0.102065 0.0324889
-0.0668923 0.109473 -0.0126504
-0.0518639 0.0999443 -0.0218198
0.0439472 0.0917185 0.0231564
0.000505603 0.092515 0.0555251
-0.0417803 0.126317 0.0192991
-0.0716986 0.077793 -0.0140498
-0.0565924 0.0442297 -0.00693458
-0.081733 0.0783168 0.0273929
-0.045101 0.156152 -0.00816042
-0.0146369 0.0466344 -0.0294365
-0.0911579 0.129687 0.0342384
-0.0385489 0.119476 -0.0123722
0.0251817 0.0344441 0.0110044
0.047238 0.0525837 0.0312359
-0.0314155 0.0651435 -0.021432
0.0398988 0.106999 0.0131638
-0.00946933 0.0932363 -0.0348935
0.0125099 0.0519837 0.0495237
-0.0848366 0.0898781 -0.00356125
0.0252284 0.116758 -0.00782512
0.0407433 0.102836 0.021176
0.0235861 0.0352777 0.0154316
-0.00849618 0.0939016 0.0554996
-0.035656 0.0591967 -0.0115208
-0.0486267 0.13356 0.00299082
0.0527588 0.0510331 0.0250995
-0.0777899 0.164478 -0.0251991
-0.0610049 0.129668 -0.00770337
-0.0683549 0.0382578 0.0114352
-0.0779478 0.107702 0.034147
-0.0492034 0.0336154 -0.00143623
-0.0154978 0.0977476 0.0489325
-0.077345 0.0838842 -0.0115833
-0.0308996 0.0862326 -0.0295626
-0.00891802 0.0982381 -0.0280905
0.00328879 0.0668715 -0.0332298
-0.0876028 0.105024 0.0163629
-0.0814849 0.0872077 0.0329213
0.0215585 0.0387445 -0.00669407
0.0436968 0.0818627 -0.00278544
0.0370668 0.109719 0.0231776
0.00411662 0.125005 -0.00865855
-0.0612038 0.154834 0.027675
0.022246 0.0835763 0.0498509
-0.0326422 0.080708 -0.0295257
-0.038486 0.115285 0.0333239
-0.0164967 0.0701922 0.0547571
-0.0107155 0.127812 0.0260097
-0.0624118 0.168239 -0.0611966
-0.0662458 0.167287 -0.027765
0.00949781 0.0440631 0.0448456
-0.0251078 0.125921 0.00624226
0.0441838 0.0712847 0.000450163
-0.0843489 0.0925325 -0.00454911
-0.0828496 0.117685 -0.00271563
0.00112155 0.035712 0.0195623
-0.058907 0.0983413 -0.0195805
0.0277963 0.0835666 0.045536
-0.0772285 0.173502 -0.0405421
-0.0699149 0.161541 -0.0103834
-0.0625234 0.0413191 -0.00677899
-0.0635915 0.15525 -0.0109401
0.0047217 0.0940547 -0.0316305
-0.0248971 0.163359 -0.0156802
-0.0122029 0.0391189 0.0354325
-0.0681397 0.0738079 0.0376094
0.0463322 0.0743214 0.0180018
-0.0698286 0.0965949 -0.0159812
-0.0573808 0.129734 0.0381066
0.000488727 0.108629 0.0427903
-0.0627834 0.035148 0.0195098
0.0484803 0.0651161 -0.0012457
-0.0316861 0.0553325 -0.0133983
0.0105059 0.0348976 0.020389
-0.027122 0.166756 -0.0173778
-0.0285179 0.0948797 -0.0246293
-0.042488 0.1112 0.0368617
-0.0751542 0.0995011 0.0375123
-0.070675 0.0778663 -0.0147995
-0.0229052 0.0945537 0.0478017
-0.0519529 0.0531525 0.0236322
-0.0773369 0.105608 0.0341784
0.012488 0.119576 0.0355898
-0.0235385 0.11268 0.0379979
0.033576 0.0781814 -0.0177928
-0.0768476 0.148423 0.040238
-0.0578481 0.0940916 -0.0211113
-0.0325075 0.11115 0.0364446
-0.0726014 0.0365856 0.00586956
0.0172278 0.0353072 0.0394845
-0.0513967 0.161204 -0.00381805
0.0253565 0.075473 0.0472224
-0.068567 0.167578 -0.0243154
0.00434495 0.0973121 -0.027058
0.0281636 0.121218 0.0186511
-0.0324286 0.126663 0.0108668
-0.0741619 0.0781636 -0.0115723
0.058528 0.0565928 0.00617045
-0.0647346 0.0751547 -0.0168067
0.0170625 0.0448711 0.043693
-0.0904989 0.148452 0.0245146
0.0400335 0.107013 0.011165
-0.0707648 0.0836514 -0.0167885
-0.0342862 0.0340473 0.0246456
-0.0440293 0.0378087 0.0445145
-0.00746087 0.0391472 0.0345828
0.046121 0.0848311 0.00917504
0.0122035 0.115305 -0.0162457
-0.0158011 0.0388262 -0.0105326
-0.0497977 0.134944 0.0250398
0.0575508 0.0523393 0.00818574
0.0451372 0.0875619 0.0011816
-0.0147028 0.0389017 0.0333119
-0.0534544 0.124093 0.0367404
-0.0582662 0.0597287 0.0219286
0.0111252 0.108699 -0.019265
-0.0556122 0.136727 0.0318764
0.0202147 0.0847891 -0.0269071
-0.0744527 0.154114 -0.0209063
-0.0520878 0.0489475 0.0226481
-0.0133229 0.0978873 -0.0277326
-0.0271594 0.0577744 0.0376032
0.0183835 0.0490953 -0.0235496
-0.0368547 0.100015 -0.0221726
-0.06064 0.140962 -0.00527103
-0.0788399 0.114858 -0.00418456
0.0141976 0.0850086 -0.0301852
0.00921575 0.0781468 -0.0329463
0.0328934 0.0381571 -2.41096e-05
-0.0717922 0.153989 -0.0428988
-0.0649779 0.141437 -0.00794337
0.036694 0.0368281 0.0111245
0.0264125 0.0450979 -0.0096842
-0.0158009 0.0813621 -0.039398
-0.0192269 0.0381483 0.0222601
0.0313289 0.0554154 -0.0147753
-0.0187344 0.126979 0.0202236
-0.0705079 0.105505 0.0376955
-0.0805231 0.0993639 0.0329828
-0.0145507 0.0980154 0.0489953
-0.0841353 0.146019 0.0379782
-0.0468295 0.0927337 -0.0216687
-0.0706968 0.169922 -0.0279808
-0.0017512 0.0769296 -0.0360915
0.00414266 0.131018 0.00407154
-0.0186385 0.0465274 -0.0284289
-0.0627141 0.159943 -0.0425974
-0.0494919 0.154959 0.0103413
-0.0534816 0.0491363 0.0336594
-0.0607907 0.0609394 -0.0015406
-0.0667272 0.0750614 -0.0156487
-0.0586999 0.141645 -0.00399496
-0.0534982 0.0344579 0.0343548
-0.0214848 0.0347602 0.0479269
-0.0891252 0.0889064 0.0184472
-0.0693701 0.141497 -0.00893397
-0.0780353 0.0880327 -0.0115615
0.0372794 0.0574491 -0.00767997
-0.0255027 0.103002 0.0430099
0.0281029 0.0968693 0.0425418
-0.0764395 0.0988661 -0.011539
0.00181256 0.0994772 -0.0233519
-0.0680681 0.061235 0.0168081
-0.0858145 0.0991904 0.0269676
0.0199447 0.104671 0.0430468
-0.0405771 0.0447491 -0.0223069
-0.0217729 0.0684817 -0.0372671
0.015355 0.119233 -0.0124997
-0.0364476 0.166788 -0.00019754
0.00176571 0.0954911 -0.0311224
0.0398803 0.0927067 0.0314285
-0.0616651 0.119834 0.0424717
-0.0616651 0.174109 -0.0575903
-0.0715189 0.150138 -0.0417489
0.0368905 0.10997 0.023344
-0.0893459 0.0888735 0.0114634
0.0350121 0.104701 0.0314746
-0.0930784 0.128223 0.0132485
-0.0524335 0.115217 0.0341034
-0.05157 0.0657725 0.0357523
-0.0310521 0.0450006 0.0489427
-0.0511539 0.144707 0.0143676
-0.0627957 0.153425 0.0330074
-0.0125183 0.095238 0.0536312
0.0071329 0.104451 -0.0211019
0.0191276 0.0370481 -0.0116797
0.00543862 0.118556 -0.0157347
-0.0889838 0.099691 0.0193911
-0.0771555 0.15282 -0.00488816
0.0441531 0.0720542 0.000197496
-0.0624974 0.0876076 0.0451456
0.0180716 0.0350245 0.0344937
-0.0618136 0.0453397 -0.00172473
-0.0544961 0.0732542 0.0409056
-0.0289733 0.124361 0.000543811
-0.0464961 0.102903 0.0415914
-0.00471394 0.0641886 -0.0352179
-0.0322701 0.0835031 -0.0295487
-0.0637785 0.0335481 0.00468656
0.0357777 0.070014 0.0376374
-0.00228102 0.038771 0.0269718
-0.0252176 0.0351344 0.0519405
0.0171797 0.119654 -0.0109592
-0.0379874 0.0336299 0.0062497
0.00239172 0.0434053 -0.0248906
-0.089161 0.137877 0.0251937
-0.0863906 0.0819518 0.00951177
0.0290078 0.087549 0.0438096
0.0082766 0.0667723 -0.0317926
-0.00649633 0.0488329 0.050181
-0.027701 0.0549269 0.0368456
0.0281109 0.0477624 0.0368744
-0.0340011 0.127005 0.00589371
-0.00449169 0.0575673 0.0538908
-0.0655596 0.171143 -0.0433207
-0.0205082 0.0474421 0.0508554
-0.0338144 0.0342727 0.0263277
0.00539495 0.0433546 -0.0245866
-0.0613089 0.0634913 0.028639
-0.00137013 0.0367929 0.00718583
-0.067493 0.105571 0.0389191
-0.0364954 0.0987325 0.0427313
-0.0645986 0.15064 0.0368964
-0.0794876 0.0745597 -0.0035364
-0.00548585 0.118301 0.0387556
0.0438711 0.0959127 0.00218342
-0.0091676 0.171172 -0.0227371
-0.0746893 0.154119 0.0302893
0.00350505 0.0590839 0.0549927
-0.0603328 0.153535 0.00105643
0.0474345 0.0682488 0.00159582
0.00522677 0.078235 -0.0342467
-0.0396568 0.0577566 -0.0113194
-0.0714969 0.156283 0.0152923
-0.0316861 0.0553325 -0.0133983
-0.0855325 0.107606 0.0053458
-0.0631802 0.0590341 0.0144269
0.0358807 0.0812282 -0.0166923
-0.0112103 0.129394 0.0199977
0.0577347 0.0705061 0.0074689
-0.0672887 0.121448 0.0519139
-0.0158082 0.0346932 0.0474464
-0.0639988 0.121381 0.0479339
-0.0614708 0.165833 -0.0590275
-0.0679573 0.0636968 0.0236258
-0.0406818 0.0636695 -0.0135779
-0.0361012 0.160724 -0.0132118
-0.0231678 0.124994 -0.000333927
-0.0526579 0.118327 0.034303
0.0153695 0.0617406 0.0502582
-0.0865991 0.0833319 0.0164838
0.00605345 0.0341614 0.00369541
0.00482779 0.0366504 -0.0137865
-0.0719231 0.155792 0.0253493
-0.070167 0.162396 -0.0479528
-0.0789135 0.0799145 -0.00757704
-0.0133142 0.0337765 -0.0222266
-0.0614351 0.156032 0.020314
-0.0670784 0.0653289 0.0275882
-0.0174974 0.103031 0.0436129
0.0313786 0.113275 -0.00606229
-0.0656393 0.145367 0.0403005
-0.0162822 0.113495 -0.0182068
-0.0693902 0.0672718 0.0289371
-0.032145 0.0863362 -0.0265533
-0.00273284 0.0712345 -0.035418
-0.0567945 0.0589511 -0.00142935
-0.0768516 0.103431 -0.00952853
-0.0805064 0.103384 0.0314383
-0.0215751 0.0667511 0.0487462
-0.0304972 0.0703216 0.0396594
0.0425261 0.101486 0.00616657
-0.0639536 0.144435 -0.0123561
0.0131837 0.129339 0.0031365
0.0459242 0.0806108 0.00418728
-0.0639921 0.134062 -0.00777265
-0.0488714 0.104198 -0.020417
-0.0667756 0.124253 0.0509201
-0.0375789 0.0335576 -0.0249215
-0.0497211 0.131062 0.0298847
-0.0305049 0.0720397 -0.0305133
0.0338477 0.0711662 -0.016803
0.00274784 0.0953419 -0.0309592
-0.0427321 0.0739589 -0.0183224
0.0376477 0.110588 0.00928033
-0.0508568 0.0999518 -0.0219402
0.0252321 0.0889244 0.0471615
-0.0843239 0.0775269 0.0169616
-0.0262513 0.0350951 0.0517484
-0.023822 0.0694685 0.046666
0.00217526 0.0894962 -0.0338845
0.0205436 0.0357642 -0.00368285
-0.0903261 0.135124 0.0222174
0.00382851 0.0992997 -0.0231609
-0.0325056 0.0760815 0.0412743
-0.0295071 0.0635474 -0.0264265
0.0377103 0.0955073 -0.00984226
-0.0786087 0.102098 0.0338163
-0.0792589 0.1445 -0.00280742
-0.0446977 0.147484 -0.0025954
-0.0905785 0.121592 0.0451008
-0.000491404 0.0814979 0.0573536
-0.0297919 0.108873 -0.0192723
-0.0258871 0.0377455 0.0194558
-0.00361865 0.109419 -0.0218821
-0.00681664 0.0854791 -0.0376549
0.0191428 0.127427 0.0167214
-0.0324319 0.159505 0.00208324
-0.0513475 0.115214 -0.0158415
-0.0331612 0.0342582 0.0246899
-0.0764958 0.131682 0.0526442
-0.0445001 0.117958 0.0308281
-0.0368012 0.111669 -0.0181954
-0.0454992 0.0425256 0.0437126
0.00516452 0.0344202 0.0197338
0.0329127 0.116986 0.00902312
-0.018026 0.0384381 0.0276504
-0.0698551 0.16523 -0.017589
-0.0267843 0.0880044 -0.0350453
-0.0414824 0.0817867 0.0423837
0.0447673 0.0847221 0.00118921
0.0149745 0.129329 0.00806984
0.00739775 0.110951 0.0406753
-0.0488628 0.0600536 0.0351294
-0.0115063 0.0575113 0.0530742
-0.045477 0.1214 -0.012376
0.0412418 0.0802411 -0.00774788
0.0454875 0.0624627 0.0298224
-0.0720478 0.154003 -0.0409023
-0.0406583 0.0577787 -0.0115563
0.00249985 0.107203 0.0424791
-0.0289152 0.0846603 -0.0346291
-0.0855607 0.103501 0.00239284
0.0213347 0.0607071 -0.0262571
-0.019247 0.158526 -0.00845424
-0.0891218 0.136568 0.0391914
-0.053021 0.0473885 0.0142865
-0.0362032 0.160944 0.000172036
0.0443454 0.0903358 0.0221636
-0.0114637 0.165492 -0.0149909
-0.0251238 0.125152 0.00185767
-0.0461472 0.0695191 0.0407559
-0.0801272 0.0895173 -0.00861746
-0.0456223 0.0548403 -0.0108081
0.0608733 0.0623548 0.014161
-0.0655484 0.039711 0.0142785
-0.0906919 0.142015 0.0231619
0.0134275 0.117615 -0.0147491
-0.091338 0.14476 0.0251578
0.0211914 0.124678 0.000362022
0.043249 0.0705728 -0.00179391
-0.0907403 0.135093 0.0162106
-0.0559476 0.153959 0.0252069
-0.00449638 0.110771 -0.0213478
-0.0634522 0.0423282 0.0135276
0.0286155 0.0795328 0.044942
0.0114636 0.0347788 0.020691
-0.0586861 0.0603162 0.0231261
-0.0665808 0.0334125 0.000644743
-0.0678611 0.0980605 -0.0159397
0.0327331 0.0942636 0.0404449
0.0520156 0.0596733 -0.00368903
-0.0932418 0.125562 0.0272746
0.000490707 0.111422 0.0424934
-0.0196267 0.0450293 -0.0277098
0.00508264 0.128731 0.0273249
-0.0283944 0.174224 -0.00779385
0.00224686 0.131192 0.0191047
-0.0693724 0.136902 0.0471868
-0.00748755 0.111393 0.0423782
-0.0923422 0.120143 0.0302906
-0.0626395 0.0644043 -0.00619313
-0.0277489 0.0877005 0.0471838
-0.019245 0.0381493 0.0168345
-0.0257849 0.174205 -0.0110873
0.0420715 0.0859357 0.0292923
-0.0632766 0.146612 -0.0147592
-0.0347632 0.076687 -0.0214942
-0.0188821 0.0387745 -0.0111028
-0.056691 0.0506774 -0.00137882
0.00612185 0.108732 -0.0201634
-0.0522813 0.0461425 0.0206748
-0.0524956 0.0890116 0.0451123
0.0196742 0.0686359 0.0495084
-0.00151033 0.108645 0.043169
-0.0453894 0.130637 0.0193744
0.0607975 0.0637336 0.0101416
-0.0454789 0.123431 0.0251209
-0.0435038 0.0438236 0.0424673
-0.000572916 0.131478 0.0109076
0.00994394 0.0362916 0.0335003
-0.0746345 0.0660496 0.0075612
0.00679871 0.128004 -0.00391746
-0.0800112 0.0826849 -0.00756298
0.031559 0.0460718 0.0312637
-0.0128757 0.105895 -0.0226089
-0.0165095 0.0446732 0.0513338
-0.0580787 0.133988 -0.00600022
-0.0465826 0.121367 -0.0123258
-0.0910722 0.141959 0.0151878
-0.0801842 0.0990978 -0.00757647
-0.0666556 0.0360676 0.0353877
-0.0406818 0.0636695 -0.0135779
-0.0558858 0.106922 -0.0182628
-0.0762229 0.149992 -0.0128764
0.0381042 0.0392738 0.00134927
-0.0736013 0.0654333 0.0137843
-0.0653495 0.0459059 0.00467835
-0.0401309 0.160681 -0.0117333
0.0235082 0.12516 0.0112114
-0.0669615 0.129698 -0.00899609
-0.0674529 0.180926 -0.0583799
-0.051308 0.153569 0.0116824
0.0279019 0.110786 -0.0114065
0.0383485 0.10917 0.00520513
-0.086972 0.143283 0.00915353
-0.0707648 0.0836514 -0.0167885
-0.0920663 0.121362 0.00826874
-0.0263289 0.0434924 0.0526862
-0.0591334 0.0584459 0.00677121
-0.0516682 0.152149 0.0128837
-0.0552893 0.160933 0.00328411
-0.0671422 0.159475 -0.0561779
-0.0432762 0.0450842 -0.0143236
-0.0532046 0.133931 0.0318349
-0.0243798 0.168291 -0.0108587
-0.0491155 0.0337431 -0.0125383
-0.00718079 0.0390105 -0.0127195
-0.0614351 0.156032 0.020314
-0.073587 0.148629 -0.0261691
-0.0642974 0.167953 -0.0385345
-0.0758946 0.0992374 -0.0118631
-0.0867571 0.0833567 0.0144816
-0.0276244 0.0436594 -0.0289391
-0.031508 0.0675059 0.0394967
-0.0596849 0.136693 0.0347693
-0.0560271 0.142758 -0.00201441
-0.0365494 0.127902 0.0108341
-0.0144519 0.166922 -0.0140569
-0.0935142 0.126862 0.0142561
-0.0231365 0.166757 -0.0180638
-0.0647273 0.156687 -0.0474505
0.0366613 0.0821332 0.0372523
-0.00582898 0.0896214 -0.0360418
-0.0208657 0.123339 0.0268408
-0.0759388 0.151364 -0.016882
