ply
format ascii 1.0
element vertex 1557
property float x
property float y
property float z
end_header
0.029367 0.1045 -0.0146741
-0.0921507 0.129567 0.0102504
0.0414995 0.0513848 0.032599
0.0203517 0.0672611 0.0487139
-0.0236559 0.0709438 0.0478646
-0.00847955 0.107265 0.0437628
-0.0879901 0.0928029 0.00642738
-0.0202902 0.0906146 -0.0362948
-0.0118194 0.129824 0.0125318
-0.0414996 0.117985 0.0314618
-0.0345036 0.0690703 0.0414109
-0.0505191 0.112725 -0.0172384
0.00950876 0.0882899 0.055046
-0.0321871 0.0680263 -0.0214501
-0.0523454 0.059725 0.0287459
0.0440384 0.0959414 0.0171588
0.0587422 0.0635506 0.00411936
0.0334058 0.0446363 -0.00548551
-0.0758891 0.119352 -0.00728174
-0.0842319 0.104575 0.0266516
-0.0179367 0.12631 0.000372783
-0.0414978 0.0748079 0.0427759
-0.0494967 0.0932039 0.0445022
-0.0423664 0.0392174 0.0434612
-0.0655655 0.115703 0.0473772
-0.0107155 0.127812 0.0260097
-0.0261589 0.0660162 -0.0325063
0.0213976 0.0505253 -0.0237217
-0.0551719 0.0344352 0.0357625
0.00652621 0.104352 0.0432895
-0.0635094 0.0987058 0.0422669
-0.0355139 0.176726 -0.00796363
-0.0615214 0.155998 0.0173864
-0.0564526 0.0602802 -0.00348733
-0.062502 0.0625858 0.0256444
-0.0309822 0.125744 0.00553845
-0.0345483 0.152531 -0.00560476
-0.0635622 0.0403137 0.0257086
-0.0145052 0.0544906 0.0506759
-0.0446156 0.0437685 -0.0132939
-0.0628844 0.116571 -0.0108779
-0.0411819 0.166655 -0.0111213
-0.0484639 0.149215 0.0104667
-0.0171714 0.0432613 0.0521182
-0.0465061 0.0425232 0.0438042
-0.053883 0.150856 0.0253998
-0.0456134 0.0424471 -0.0132755
-0.0336555 0.0363317 0.0490618
-0.0853944 0.101863 0.0264831
-0.0752073 0.156095 0.0183637
0.0610091 0.0623122 0.0111052
-0.0391932 0.171233 -0.0109027
-0.0697061 0.156309 0.0202886
0.0602499 0.0678328 0.0161531
0.012125 0.10869 -0.0190017
-0.0211614 0.183089 -0.0130948
-0.0919325 0.130933 0.0102425
-0.0832136 0.0770175 0.0194025
-0.0825062 0.110166 0.000353593
-0.0525878 0.149334 0.020403
-0.00649249 0.110023 0.0430195
0.021964 0.0402022 -0.00870612
-0.0581184 0.132538 0.0370402
-0.0634619 0.0339766 0.015084
-0.0494985 0.104247 0.040228
-0.0315243 0.0802674 0.0412906
-0.0789484 0.130998 -0.00538086
-0.0514977 0.0917694 0.0441515
-0.0331634 0.0381954 -0.000525199
-0.00717802 0.130589 0.0142265
0.00924009 0.0846665 0.0556174
-0.040496 0.0577326 0.0402811
-0.0771832 0.107237 0.0346968
0.0317419 0.0667553 -0.0187125
-0.00449702 0.0590031 0.0543234
-0.0840303 0.151908 0.0287412
-0.0147356 0.124887 0.0290085
0.0444747 0.0438727 0.000520461
0.0141656 0.0475343 0.0448184
-0.0655548 0.153788 -0.00146085
0.00933928 0.0947261 -0.0283032
-0.0192007 0.0392753 0.0392298
-0.0467107 0.0709021 -0.0159388
-0.0910253 0.115214 0.0323598
-0.0548201 0.128324 0.0365339
-0.0670035 0.166617 -0.0570134
-0.00148369 0.0732377 0.0582942
0.00494704 0.131338 0.0186496
-0.0924128 0.11471 0.0173177
0.0176298 0.0382941 -0.0187111
-0.0477691 0.130137 0.000614804
0.0471472 0.0437632 0.0216364
0.00040853 0.0356817 0.00488121
-0.0539655 0.0364915 -0.0115887
0.0266877 0.104744 0.0387392
-0.00969446 0.0598719 -0.0345693
-0.0613933 0.155777 0.0101812
-0.0338144 0.0342727 0.0263277
-0.0697681 0.156742 -0.0499137
-0.0191683 0.0336751 -0.0214022
0.0444927 0.0610909 0.0304355
-0.0842996 0.0965857 0.0297797
-0.0573945 0.0371513 -0.0102727
-0.00360287 0.0419944 -0.0253901
-0.0780673 0.0690482 0.0132523
0.0475361 0.0451237 0.0241502
-0.0358918 0.166781 -0.00116722
-0.0174724 0.0388154 -0.0145918
-0.0854712 0.0791996 0.00951147
-0.0144795 0.0617481 0.0535104
0.00646924 0.0964123 0.0516046
0.0320447 0.061134 -0.0177676
0.0284451 0.114053 0.0325229
-0.0895075 0.148492 0.0263454
-0.00687536 0.0389886 0.0330493
-0.0198519 0.0357263 0.0525976
-0.00594641 0.0989148 -0.0267499
-0.00422658 0.0396088 0.0480089
-0.0538462 0.137744 -0.0016929
-0.0827485 0.134001 0.0496722
-0.0561079 0.0571065 0.0121919
0.00750734 0.0990008 0.0480837
0.0606695 0.0664968 0.0121468
0.0210892 0.0521114 0.044364
-0.0235296 0.159196 -0.00227474
-0.0678966 0.110866 -0.0116376
-0.0486835 0.0664435 -0.0136416
0.042675 0.0751161 0.0282624
-0.00850113 0.0633575 0.0560799
-0.070992 0.0395652 0.00837515
-0.0447621 0.126552 0.0211574
0.0093177 0.0926652 -0.0301396
0.0228724 0.125195 0.0195238
-0.052501 0.0805516 0.0443114
-0.0415254 0.172553 -0.00373349
-0.0684496 0.0369814 0.0129839
-0.052909 0.0559665 0.0126205
0.030074 0.119769 0.00796635
-0.0488748 0.105594 -0.0196597
-0.0892157 0.0956404 0.0184193
-0.0523718 0.133555 -0.00317026
-0.0495888 0.146296 0.0105853
-0.0455151 0.0533187 0.0381544
-0.0512571 0.0488673 0.0206327
0.0227878 0.0350417 0.0227582
-0.0593508 0.0339548 0.0212701
0.0435095 0.0527832 0.0325495
-0.0510737 0.151654 -0.00393732
0.0360298 0.0573371 -0.00970954
-0.0874177 0.131128 0.0459004
-0.0194885 0.0856172 0.056795
0.0499493 0.051169 0.0281186
-0.0651889 0.153592 -0.00278678
0.00444274 0.131539 0.0170385
0.0129483 0.0405423 0.0447572
-0.0658335 0.0881117 -0.0184537
-0.0172469 0.116672 -0.0155678
0.043113 0.0972735 0.00118522
-0.0744413 0.0833098 0.038687
-0.0516134 0.0334804 0.007228
-0.0330003 0.0497903 -0.0153502
-0.0212823 0.0391811 0.0388836
-0.0254941 0.0486931 0.0489695
-0.0344955 0.0889014 0.0434521
0.0354668 0.0573224 -0.0106723
0.00224668 0.0740592 -0.0351433
-0.0476682 0.165409 0.0039929
-0.0912831 0.133698 0.0142161
0.0183651 0.124757 -0.00246117
-0.0782584 0.1764 -0.0490322
-0.0913132 0.113305 0.0163255
0.0217183 0.114203 -0.013082
-0.00449913 0.108643 0.0435023
0.0133536 0.0359529 -0.0210721
-0.0555013 0.0623754 0.0293782
-0.0308539 0.0958394 -0.0237431
-0.035495 0.171374 -0.0137494
0.00534877 0.131711 0.0116581
-0.00692431 0.038377 0.0191445
0.00341369 0.131576 0.0166618
-0.0102986 0.126308 0.029096
-0.0698895 0.170875 -0.0319754
-0.0134564 0.0347657 0.0443699
0.00150101 0.0647986 0.0566673
-0.0792807 0.167978 -0.037009
0.0326609 0.0673309 0.0401471
0.0547499 0.0492946 0.00521444
0.0373767 0.0519575 -0.00666499
0.00796329 0.0376774 0.0282412
-0.0101883 0.0876449 -0.0371912
0.0366496 0.0848209 0.0372394
-0.0709057 0.106531 -0.0119068
-0.0494359 0.138587 0.00541192
-0.05033 0.0517928 0.0340061
-0.00709045 0.130506 0.0171336
-0.0671961 0.15591 -0.00355939
0.0320484 0.11465 0.0272407
0.0326729 0.0388984 0.0249367
-0.0432762 0.0450842 -0.0143236
-0.0255949 0.125933 0.00752005
-0.0625553 0.041701 -0.00649092
0.00446502 0.0977292 0.050995
-0.0702125 0.173659 -0.0540385
-0.0626761 0.177191 -0.057627
-0.0474373 0.120726 0.0283448
0.0043237 0.131753 0.0112849
-0.0108856 0.107334 -0.0222671
-0.0627531 0.161513 -0.0475897
-0.0114934 0.104435 0.0434539
-0.0655537 0.161293 -0.0160037
-0.064868 0.0953298 -0.0181139
-0.01652 0.0715906 0.0550352
0.000388646 0.0448955 -0.0263577
-0.00362249 0.0451016 -0.0279234
-0.0733382 0.158682 -0.00576511
-0.0584616 0.0717087 0.039721
-0.0813927 0.0758934 0.0225084
0.043329 0.066441 -0.000599376
-0.0483458 0.0338972 -0.0143683
0.0136703 0.0446634 0.0441067
-0.0623204 0.0448503 0.0109236
-0.00820144 0.0344928 -0.0181278
-0.0690062 0.162382 -0.0519693
0.0399676 0.101315 -0.00381805
-0.0868299 0.0846427 0.00348465
-0.0624118 0.168239 -0.0611966
0.00349445 0.12099 0.0360851
0.0254863 0.0578069 0.043747
0.0427074 0.0831548 -0.00579292
-0.0167827 0.0388081 0.0329676
-0.0623389 0.163139 -0.0325913
-0.0659073 0.110934 -0.0126703
-0.0681737 0.074979 0.0383298
-0.060198 0.152175 0.0339452
-0.0574962 0.108397 0.0389105
0.00418461 0.0908826 -0.0329329
0.0172719 0.0348529 0.0254373
0.0147945 0.0909396 -0.0283095
-0.0281178 0.0845911 -0.0356125
-0.0303071 0.0339954 0.0147064
0.0184941 0.0838333 0.0510457
-0.0618946 0.0333508 -0.00558837
-0.0495176 0.0451863 0.0426306
0.0207467 0.0387687 0.0412277
-0.0395001 0.100068 0.0413695
0.00279805 0.0339767 -0.0211497
-0.0147779 0.0756914 -0.0387415
0.0180905 0.1262 -1.26099e-05
0.0373988 0.0430101 -0.00376662
-0.0578171 0.08688 -0.0211007
-0.054238 0.13299 -0.00459005
0.00168043 0.0346784 0.042239
0.042117 0.0792074 0.0292753
-0.0683614 0.15578 0.00913576
-0.0105678 0.0384807 0.0255376
-0.0837769 0.153466 0.0110188
-0.0206234 0.0950485 -0.0308006
-0.0324852 0.0946249 0.0445277
-0.0311581 0.17265 -0.0162683
0.0520156 0.0596733 -0.00368903
-0.00273038 0.0683735 -0.0347173
0.0142608 0.0359816 -0.0203372
-0.0126907 0.166905 -0.0150111
-0.0887218 0.0874968 0.0134639
0.00528348 0.0654438 -0.0329345
-0.0144833 0.105825 0.0431811
-0.0493716 0.143224 0.00839291
-0.0690053 0.160967 -0.0519594
0.0262791 0.0675449 -0.0231801
-0.062851 0.116991 0.0425454
-0.000588677 0.037658 -0.0249499
-0.00260639 0.0419888 -0.0252454
-0.0758088 0.0906346 -0.0139136
-0.0243398 0.183957 -0.0138554
-0.0709343 0.126767 -0.00893718
0.032372 0.116958 0.0202394
-0.0111671 0.0867859 -0.0382994
-0.0871129 0.152836 0.0157593
0.0243441 0.0535282 0.0420575
-0.0898521 0.112924 0.020019
0.000280959 0.0655552 -0.0344559
0.0392263 0.0874331 0.033936
-0.0636022 0.151642 0.0357576
-0.0725069 0.145589 0.0436497
-0.0397671 0.127634 -0.000654541
-0.0897135 0.12265 0.00431103
-0.0223183 0.094515 0.0486399
-0.0306705 0.0692801 -0.0274547
0.00181128 0.125691 -0.00735123
0.00249985 0.107203 0.0424791
-0.0599936 0.0459773 0.0409964
-0.010275 0.170544 -0.0261793
-0.0538885 0.131144 0.0343613
-0.0569665 0.0548885 0.00161507
-0.0637552 0.15245 -0.00517189
-0.0242177 0.0387671 0.0542484
-0.00902947 0.129018 0.00125187
-0.0689469 0.0433261 0.00632212
-0.0406738 0.0606904 -0.0121867
-0.0142459 0.168321 -0.0155387
-0.0681398 0.156014 0.0252192
-0.0570307 0.151068 0.0316808
-0.0907804 0.150219 0.0191245
0.0217161 0.119158 -0.00841047
-0.0213227 0.0927441 -0.0344661
-0.0622726 0.163207 -0.0582148
-0.00549495 0.0456998 0.0471564
-0.0365847 0.122192 -0.00920846
0.0182463 0.0722224 -0.0290012
0.0155029 0.119565 0.0348769
-0.0809085 0.111715 -0.000772193
-0.0754673 0.153642 0.0315487
-0.0675133 0.108346 0.0377589
-0.00549337 0.088417 0.0570387
-0.0568394 0.145329 0.0319256
-0.0476612 0.135572 0.0133995
-0.0874127 0.118983 0.0477049
0.0168274 0.0658911 0.0506364
-0.0437155 0.0710509 -0.0175901
-0.0730605 0.177343 -0.046073
0.0343862 0.0533953 0.033694
-0.0655537 0.161293 -0.0160037
-0.044116 0.168361 -0.0078879
-0.0325248 0.0371997 0.032926
-0.0332631 0.177035 -0.011981
0.0245725 0.122909 0.0244414
0.0266976 0.119444 -0.00271582
-0.0298407 0.0705727 -0.0304857
-0.0552695 0.058846 -0.00542677
0.0151093 0.0887421 0.0518346
-0.0208004 0.181643 -0.0143459
-0.0743637 0.153685 0.0319267
0.0281364 0.0448054 0.035097
-0.0497297 0.0416675 0.0451167
-0.0807265 0.0770568 0.0269252
-0.0388285 0.0339925 0.000319116
-0.0606157 0.0459479 0.0402046
0.0226111 0.0458717 -0.017849
0.00980942 0.110782 -0.0193656
-0.0615068 0.0789665 0.042503
0.0380379 0.075373 0.0356471
-0.066685 0.0361231 0.0351414
-0.00551112 0.0390255 -0.00865823
-0.072832 0.162419 -0.0389636
0.0227189 0.116065 -0.0110894
-0.061813 0.175696 -0.0586065
-0.0205993 0.0408181 -0.0286892
-0.0698308 0.071946 0.0353261
-0.0200728 0.100101 -0.0240875
-0.0494965 0.11266 -0.0171746
-0.0640233 0.0347562 0.0388023
-0.0633595 0.155022 0.00583483
-0.0529179 0.162663 -0.000927718
-0.0574974 0.104327 0.0414929
-0.0273424 0.0931435 -0.0275899
-0.0366993 0.124957 -0.00615077
-0.0909618 0.13376 0.0242167
0.00350659 0.0388434 0.0262887
0.0608111 0.0651191 0.0151635
-0.0468292 0.091298 -0.0217206
0.0327231 0.116168 0.00178038
0.00333349 0.0390305 -0.00876711
-0.0782079 0.165287 -0.027954
-0.0448304 0.0956436 -0.0219722
0.00923869 0.035402 -0.0117616
0.0282492 0.102359 -0.0164093
0.0302544 0.115002 0.0294335
-0.0252475 0.0736694 0.0465167
-0.0468539 0.0397424 -0.0132276
-0.0613421 0.118288 0.041013
-0.0436492 0.0577877 -0.0118151
-0.00507021 0.128586 -0.00238902
-0.0174802 0.127364 0.0206736
-0.0718125 0.0922256 -0.0157107
-0.0261657 0.11885 -0.0117616
-0.0278603 0.101566 -0.0234492
0.046259 0.0820395 0.0071847
-0.0565425 0.0415574 -0.00871771
-0.026559 0.0377408 0.0211248
-0.0219738 0.059501 0.0451263
-0.0144997 0.103011 0.0432504
-0.060035 0.0645406 0.0315175
-0.0788426 0.0825957 -0.0096075
-0.0774025 0.100791 0.0354679
-0.0547437 0.0337519 0.0206417
-0.0142085 0.0972199 -0.0290358
-0.0707693 0.176767 -0.0466577
-0.0539202 0.0610131 0.0274265
-0.012498 0.078722 0.0572931
-0.0834511 0.149763 0.0335021
0.000412609 0.0393166 0.0342543
-0.0488762 0.0335766 0.000473902
-0.0705043 0.0887655 0.0418556
-0.0613242 0.174126 -0.0596453
-0.0497578 0.0797288 -0.020162
0.044036 0.0973464 0.00517085
0.00550646 0.078617 0.0558754
-0.0358825 0.108535 -0.0199213
-0.0665046 0.10698 0.0385746
0.0267602 0.0365817 2.43485e-05
0.0539053 0.0478505 0.00821457
-0.0541716 0.144673 0.0274046
0.0132667 0.0519749 0.0488584
-0.0168303 0.0382802 0.00815469
0.03646 0.112262 0.0117392
-0.0790801 0.0704064 0.00826811
-0.0896121 0.0902414 0.0154476
0.000420458 0.036172 -0.0244623
0.0354634 0.113562 0.00993821
-0.0649333 0.145142 -0.016034
-0.0733752 0.0741466 0.034437
0.0563556 0.0723446 0.0173318
-0.0620444 0.166711 -0.0606187
-0.0108296 0.0855471 -0.0384547
-0.0667821 0.14845 -0.031825
0.0505086 0.0461176 0.0032623
-0.00963566 0.0383633 0.0204127
-0.0703591 0.181312 -0.0565189
0.0428254 0.0986969 0.0191637
-0.0873547 0.094105 0.00537923
-0.071633 0.174549 -0.0412084
-0.049763 0.132774 0.0280532
-0.0498374 0.138571 0.0183794
0.0267785 0.0402768 0.0313512
-0.04802 0.136068 0.0153684
-0.0511539 0.144707 0.0143676
-0.0478246 0.129609 0.027299
-0.0533709 0.0334238 -0.0075905
0.0435234 0.0433666 0.0249665
0.0110271 0.112101 -0.0187639
-0.0881736 0.132451 0.0437642
-0.012912 0.0339283 -0.0204101
-0.0315509 0.053914 -0.013393
-0.0866623 0.0964635 0.0264805
0.045657 0.07639 0.00319799
-0.0764972 0.123179 0.0527664
-0.0142291 0.127243 0.024765
-0.0300389 0.036799 0.0524219
-0.0828745 0.119161 -0.00328383
-0.0297787 0.125132 0.0177406
-0.000496894 0.0520342 0.0541515
0.0241621 0.0505303 0.0399762
-0.0269995 0.0383068 0.000625566
0.0215063 0.107058 0.0398344
-0.0627985 0.161541 -0.0235962
0.0556724 0.0698728 0.00398853
-0.0464941 0.0987388 0.0427545
0.0547452 0.0661481 0.0263648
0.0382636 0.109749 0.0121659
-0.00361434 0.0341476 -0.0187856
-0.0499699 0.150693 0.011804
-0.0205993 0.0408181 -0.0286892
0.0157558 0.127182 0.025475
-0.0390578 0.156263 -0.0100859
0.0413778 0.0561233 -0.00592276
-0.0872189 0.103599 0.00739967
0.0199074 0.11877 -0.0100039
0.0201484 0.0899648 -0.02526
0.0138891 0.0942573 -0.0257865
-0.0569887 0.118401 0.0385929
-0.0718222 0.0666154 0.0237319
-0.0662201 0.0390045 0.0360529
0.041496 0.0555737 0.0320634
0.0179499 0.0360095 0.0408071
-0.0447805 0.0840976 -0.0212945
0.0110282 0.0968851 -0.0245853
-0.0858835 0.0833066 0.0204824
-0.0619058 0.105434 -0.0174028
0.0141872 0.0347155 0.0357788
0.0338375 0.109906 -0.00644408
-0.0858669 0.119072 -0.00140229
0.050682 0.0731977 0.010749
-0.0484084 0.144974 0.000471547
-0.0493982 0.113885 -0.0164603
0.00579855 0.0347845 0.042995
0.0405174 0.0829825 -0.0107762
-0.0781312 0.100777 0.0347873
-0.0387321 0.0724952 -0.0174162
-0.0466973 0.0665278 -0.0146823
-0.0324965 0.174231 -0.00238999
-0.0275135 0.111195 0.0372083
-0.066213 0.0377522 0.0375383
-0.0374845 0.100078 0.0419234
0.00650022 0.0937602 0.0531051
-0.00181158 0.0365903 0.0109133
-0.0117444 0.129778 0.0154481
-0.0609826 0.13955 0.0346529
-0.0704991 0.101365 0.0396906
0.013481 0.0358562 0.0436245
-0.0415001 0.0733705 0.042415
-0.0216926 0.126501 0.0176944
-0.0765357 0.0692333 0.0204809
-0.0364752 0.09732 0.0430461
0.00992987 0.0806149 0.0548353
-0.0390182 0.0473551 -0.0162983
-0.058643 0.155634 0.0155202
-0.0644937 0.108375 0.0384047
-0.0125561 0.107483 -0.0218463
0.0532901 0.0621073 -0.00218568
-0.0858293 0.151702 0.00893089
-0.00219357 0.131295 0.0117423
-0.0885619 0.129493 0.00323888
0.0398162 0.107019 0.0141667
0.0207547 0.10431 -0.0184628
-0.0748503 0.150353 0.0378605
0.0141307 0.108667 -0.0183815
-0.0702988 0.15533 -0.0489684
-0.0826044 0.1367 0.0480323
0.00749052 0.0923616 0.0534281
-0.0639127 0.160548 -0.0182872
-0.0504041 0.0345678 0.0349233
-0.0925663 0.116874 0.0234322
0.034944 0.10998 0.0278542
-0.0636035 0.156128 0.0166435
0.0410305 0.0422896 -0.000687891
-0.00410534 0.0385566 0.0231802
-0.0596957 0.14074 -0.00502874
0.00813236 0.110171 -0.0197068
-0.049499 0.112564 0.0357174
0.0325339 0.116751 0.00316678
0.010477 0.116818 0.0374755
-0.019536 0.116371 -0.0152209
0.0255432 0.0768418 0.0475089
-0.0116086 0.0384341 0.0253641
-0.0538856 0.101336 -0.0209374
0.0473189 0.0638822 -0.00202275
0.0429772 0.0902337 -0.00478341
-0.0667828 0.0837809 -0.018353
0.0288613 0.0520696 0.0379853
-0.0798668 0.12036 0.0500614
-0.0856119 0.0819492 0.0204815
-0.0708338 0.143978 -0.0149516
-0.0265586 0.171236 -0.0104749
-0.036834 0.0382539 -0.0105119
-0.0434927 0.0747943 0.0426652
-0.0764224 0.152995 0.0327283
-0.014877 0.12853 0.00563728
-0.0333397 0.0410057 0.0499212
-0.000612836 0.0356605 0.0156316
0.0429126 0.0775596 -0.00475805
-0.0818952 0.134036 0.0502533
-0.000397233 0.131333 0.0167016
0.036728 0.111857 0.010401
0.0191581 0.0357679 0.0376614
0.000886159 0.12297 -0.0104051
-0.0338028 0.122413 -0.00742547
-0.0248582 0.0752289 0.048914
-0.0769787 0.135423 -0.00568624
-0.0201478 0.16826 -0.0196016
0.0153464 0.0537553 -0.0279934
0.0142765 0.0666697 -0.0302658
0.0584157 0.0647883 0.022872
0.0227041 0.124378 0.0023667
0.0174948 0.109841 0.0394103
0.0397392 0.0658643 0.0327972
-0.0397156 0.127552 0.0155957
-0.0620569 0.121268 0.0436785
-0.0202736 0.0966137 -0.0264451
-0.0771576 0.158311 -0.0229061
-0.0700117 0.176166 -0.0463861
-0.0316694 0.0357391 0.0272619
-0.0345095 0.0761212 0.0417709
0.00250222 0.0504849 0.0522926
0.0182388 0.0763952 -0.028136
-0.0283024 0.0362399 -0.0299084
0.0190254 0.061825 0.0484929
0.0163555 0.0343012 4.3653e-05
0.0300144 0.0389449 0.0261617
0.0265757 0.0754454 0.0454823
-0.0692389 0.149629 -0.0402111
-0.016863 0.0640072 0.0526042
0.00852018 0.0702413 0.0555324
-0.076476 0.07597 0.0322323
0.0271142 0.0463333 0.0371793
-0.0290382 0.16386 -0.00530596
0.042201 0.0819186 0.0294354
-0.0237931 0.0698259 -0.0366341
0.0424267 0.0441756 -0.00158684
0.0206783 0.0361727 0.0176735
-0.0584858 0.0776493 0.0431837
0.00942926 0.0360304 0.00452751
-0.0182505 0.0920203 0.0545129
0.0180116 0.0754634 0.0524537
-0.0652467 0.122825 0.0496059
-0.0916556 0.116096 0.0323166
-0.0134985 0.11551 0.0389419
-0.0379377 0.157973 0.00463177
0.0338239 0.11087 -0.00547119
-0.0274798 0.0446461 0.0507675
-0.0692254 0.124258 0.0526584
-0.0891956 0.099693 0.0183885
0.0393856 0.0475887 -0.00567863
-0.0773727 0.156953 -0.0129034
-0.00349089 0.112806 0.0419152
-0.0612049 0.174131 -0.0607222
-0.0877346 0.144562 0.0345528
-0.0482262 0.166987 -0.00394405
-0.0104845 0.10863 0.0429333
-0.00476329 0.0770151 -0.03731
0.0450177 0.0875447 0.000184881
0.0375648 0.0926236 -0.0120119
-0.0669085 0.108072 -0.0133167
-0.0609535 0.135292 0.0364528
0.0170749 0.128355 0.00741174
-0.0583717 0.138143 0.0331568
-0.0158456 0.122449 -0.00760827
-0.00848834 0.10866 0.0434392
0.0162437 0.0764684 -0.0291666
-0.0513331 0.0334323 -0.00718543
-0.0607177 0.0335659 0.00529637
-0.0164962 0.0815146 0.0575151
0.0292349 0.0759579 -0.0220376
-0.0482395 0.144672 0.00644062
-0.0256858 0.0575487 -0.0293997
-0.0154917 0.0883884 0.056678
-0.0574904 0.0847348 0.0442092
-0.00422605 0.0355815 -0.0164762
-0.0221125 0.0389367 0.0353489
-0.0882017 0.0949941 0.0238463
0.0555717 0.0706847 0.00515518
-0.060098 0.0687043 0.0366734
-0.0771697 0.152833 -0.00289126
-0.0370933 0.175555 -0.00565624
-0.00163455 0.0466691 -0.0289171
-0.0284285 0.0821494 0.0466355
-0.00652053 0.0688834 0.0561767
-0.017033 0.0949215 -0.0326512
0.044554 0.0917551 0.0201604
-0.0280768 0.169745 -0.00916431
0.0402375 0.104169 0.000177419
-0.0478947 0.122501 0.0288841
0.0293628 0.105677 -0.0139766
-0.0213227 0.0927441 -0.0344661
-0.0273795 0.0859709 -0.0356537
-0.00571704 0.0642049 -0.0354496
0.00149552 0.116934 0.0397718
-0.0217336 0.0611778 -0.0340471
-0.0220309 0.0609111 0.0451603
-0.0633419 0.155193 -0.0376165
-0.0202736 0.0966137 -0.0264451
0.0315592 0.035603 0.0149292
0.00795806 0.127195 -0.00506697
-0.0768287 0.154208 -0.00589938
-0.0541413 0.128093 -0.005327
0.0594367 0.0663847 0.00713811
-0.0203175 0.0933679 0.052311
0.0254616 0.0727112 0.0456024
-0.0440699 0.153194 -0.00699527
-0.0622101 0.169551 -0.0614764
-0.000506085 0.0442149 0.046198
-0.0466818 0.0680053 -0.0151447
-0.0715263 0.0944187 0.0416527
-0.0525546 0.0444744 -0.00849373
-0.0622047 0.0394245 0.0433885
-0.0207606 0.0670735 -0.0371287
0.00750831 0.0772509 0.056126
-0.00648083 0.111994 -0.0206545
0.00849221 0.108496 0.0406568
-0.00519498 0.0390091 -0.00671136
-0.0909787 0.118866 0.0441649
-0.0374845 0.100078 0.0419234
-0.0340904 0.160759 -0.0135462
-0.0280887 0.123076 -0.00418723
-0.033517 0.115303 0.0329858
-0.0895401 0.135156 0.0272131
3.04988e-05 0.11432 -0.019028
-0.074679 0.177203 -0.0452121
-0.00845839 0.0346349 0.045549
-0.0647928 0.0346609 0.0159953
0.0106658 0.0351593 0.00371028
-0.0685313 0.0435239 0.00368786
0.0413844 0.0438265 0.0277643
0.030074 0.119769 0.00796635
-0.038884 0.108506 -0.019659
-0.0094303 0.0379372 -0.0159242
-0.0704025 0.156596 -0.000355665
-0.0524964 0.0876231 0.0453765
-0.0630898 0.161515 -0.0224551
-0.0552893 0.160933 0.00328411
0.00448236 0.11415 0.0407558
-0.0922534 0.122854 0.0424865
-0.0751782 0.152724 -0.0149145
-0.0635158 0.162004 -0.0583208
-0.0370217 0.0410946 -0.0286549
0.010384 0.0463357 -0.0254801
-0.0244946 0.0357757 0.0532784
-0.0427898 0.116428 -0.015168
-0.038314 0.170034 -0.0122167
-0.0658335 0.0881117 -0.0184537
0.0474407 0.0661575 -0.000283122
-0.062107 0.163118 -0.0365927
0.044508 0.0412168 0.00624902
-0.0708134 0.0893817 -0.0163657
-0.0826594 0.0993103 0.0308836
-0.0659473 0.151954 -0.0393992
0.0156548 0.128965 0.0154331
-0.052073 0.150157 -0.00315276
-0.0808289 0.138985 -0.00281163
-0.091127 0.143391 0.0261688
-0.084936 0.144668 0.0388142
0.0292295 0.102131 0.038919
-0.0267061 0.0765373 0.0464972
0.0064659 0.11274 0.0407332
-0.0404979 0.0776396 0.043177
0.0412949 0.104257 0.00416372
-0.0437757 0.12944 0.0066621
-0.0404708 0.109814 0.0374017
-0.0637474 0.0766435 -0.0177206
-0.0386191 0.118326 -0.013151
-0.0156786 0.0526029 -0.032522
-0.0512629 0.0388692 0.0464256
0.000137104 0.104495 -0.0221519
-0.0541416 0.034749 0.0443256
-0.0688663 0.102328 -0.014772
0.0396169 0.0843072 -0.0127653
0.0392717 0.0938049 -0.00924672
-0.0233118 0.182976 -0.0180572
-0.0365515 0.115187 -0.0158874
0.0390056 0.0914413 0.0336848
-0.0264832 0.105687 0.0411729
-0.0159434 0.0385311 0.027994
0.0271048 0.0835778 0.0462962
-0.063271 0.158522 -0.0165888
-0.0417745 0.172541 -0.00446528
-0.0452001 0.165138 -0.00833108
0.0367263 0.0794489 0.0373046
-0.0871595 0.128427 0.0471391
-0.0777857 0.156925 -0.0179137
0.0176793 0.0852191 -0.0283526
0.0264379 0.0968548 0.0436578
0.032601 0.100801 0.0367685
-0.047644 0.121343 -0.0122933
0.0034868 0.107186 0.0422902
0.0280387 0.0549866 0.0403705
-0.0662716 0.170413 -0.0392349
0.0018938 0.131459 0.00752669
-0.0322022 0.0465812 -0.0258568
-0.0129906 0.0568055 0.0517595
-0.0645332 0.120008 0.0489179
-0.0218167 0.0770677 -0.0388569
-0.0368559 0.101427 -0.0217814
-0.0510409 0.034583 0.0365198
-0.0747046 0.0837005 -0.0145969
-0.010501 0.0759377 0.0571751
-0.000499764 0.0590718 0.0548831
-0.0509437 0.0349503 0.0448676
0.0181222 0.116444 -0.0134944
-0.0849152 0.0791131 0.00550947
-0.0568151 0.142191 -0.00256359
0.00351191 0.0459363 0.0483003
-0.00262958 0.0466399 -0.0290845
-0.0637186 0.179242 -0.0585917
-0.0477419 0.0345444 0.0337565
0.0135389 0.0341511 0.00148413
-0.0704953 0.104114 0.0382884
-0.0278584 0.0385169 -0.0108032
-0.063845 0.150027 0.0371387
0.0502975 0.0560957 -0.00457555
-0.0213253 0.0444675 0.0531428
-0.0136298 0.0943834 -0.0340901
0.00949153 0.0936876 0.0522363
0.0485013 0.0651587 0.0285278
-0.0769339 0.126684 -0.00758482
-0.0464961 0.0833304 0.0442498
0.0108694 0.130662 0.0179509
-0.0620358 0.136971 -0.00707833
0.000535895 0.0548656 0.0545076
0.0150763 0.0900809 0.0517899
-0.0164629 0.0616668 0.0525376
0.00616601 0.0343841 0.0199712
0.0110403 0.0725847 0.0546235
-0.0264503 0.181668 -0.00853376
0.0278587 0.0463325 0.0365003
-0.0526204 0.141613 0.022402
-0.0315292 0.124197 -0.00202254
-0.0892353 0.14446 0.0304266
-0.0368214 0.16531 -0.000729186
0.00831584 0.0624371 -0.0312473
-0.0721022 0.165224 -0.0439746
-0.0656817 0.0705232 -0.0118151
-0.0696125 0.150354 -0.0430103
0.00793492 0.130935 0.0197362
-0.0934962 0.117401 0.0173034
-0.00674006 0.0712942 -0.0362643
-0.0063009 0.09425 -0.0339062
0.0212764 0.0693138 -0.0277613
-0.0506782 0.141637 0.0173818
0.052927 0.0495927 0.0235839
-0.00180856 0.0881831 -0.0355551
-0.0774982 0.133088 0.0521596
0.0297787 0.0446629 0.032196
-0.0724664 0.0678961 0.0260135
0.0353118 0.0520079 -0.00674902
-0.0916942 0.124053 0.00727726
-0.0144964 0.104421 0.0432413
-0.0703548 0.0643588 0.00158224
-0.0406946 0.0340162 0.0268873
-0.00669164 0.129496 0.00145082
-0.0569142 0.0548839 0.00364185
-0.0524183 0.131115 0.0329855
-0.0727804 0.0887809 0.0411113
-0.0215077 0.111305 0.0395987
-0.0625318 0.0662874 0.0329584
-0.0547075 0.153861 0.0184094
-0.0126238 0.0952928 -0.0330113
-0.0210747 0.0753924 0.0536136
-0.0334959 0.0335656 -0.024125
-0.0528315 0.0558373 -0.00742005
0.000231956 0.0755133 -0.0357459
-0.0692562 0.143958 0.0438704
-0.0728418 0.0685704 -0.00149472
-0.0908243 0.114994 0.023547
0.0455301 0.0677752 0.0254231
0.00250545 0.0842781 0.0574483
-0.0488506 0.0999451 -0.0218934
-0.00301248 0.0391855 -0.0120497
0.0125362 0.127772 -0.00169738
-0.0607657 0.139716 -0.00595313
-0.0344319 0.0350721 -0.0182387
-0.043544 0.157959 0.00535766
0.0326609 0.0673309 0.0401471
-0.0637307 0.0344451 0.0269565
-0.00832489 0.0993422 -0.0252442
-0.065484 0.0847424 0.0442074
0.0344326 0.0414166 -0.00330414
-0.0807961 0.0747709 0.0205502
-0.0166484 0.0480949 -0.029815
-0.0829532 0.112769 0.000219247
-0.00938967 0.130192 0.0162996
-0.0593516 0.0471429 0.038917
-0.00823999 0.130343 0.0167173
-0.0315436 0.153515 -0.00448892
-0.0885624 0.127032 0.0457658
-0.0605024 0.111127 0.0368734
-0.0248115 0.081196 -0.037776
-0.0334777 0.0546734 0.0376709
0.0110403 0.0725847 0.0546235
-0.0236648 0.0522261 -0.0284113
-0.0761893 0.0686573 0.0192806
-0.0895335 0.144692 0.0121557
-0.0820175 0.148708 0.00217249
-0.00652053 0.0688834 0.0561767
-0.0580129 0.118724 -0.0113962
-0.0637998 0.0852745 -0.0191701
0.0236407 0.0347514 0.0177381
-0.0624902 0.155293 -0.0145941
-0.079214 0.155524 0.0184351
-0.0839692 0.148747 0.00414299
-0.0553377 0.0457536 -0.00639551
-0.0861005 0.10314 0.0243088
-0.0118005 0.0841384 -0.0387163
-0.0354821 0.0561791 0.038801
-0.0331365 0.162399 -0.0024379
-0.0671177 0.159814 -0.0107973
0.00234532 0.0524899 -0.0301138
-0.0445186 0.0533636 0.0386768
0.0349362 0.113582 0.0211925
-0.0868299 0.0846427 0.00348465
-0.0243767 0.179986 -0.0189674
-0.0505797 0.0528906 0.0145102
-0.00566591 0.0540919 -0.0326394
-0.0248582 0.0752289 0.048914
-0.0839857 0.132609 0.0495198
-0.0804325 0.078146 0.029561
-0.0114919 0.0911558 0.0564108
0.0321413 0.0513188 -0.0087021
-0.0484504 0.134772 0.0211152
0.0268259 0.0605622 0.0439609
0.0543768 0.0731861 0.0106539
-0.0482395 0.144672 0.00644062
-0.00364871 0.0982082 -0.0280452
-0.0224181 0.05387 0.0440179
-0.0236613 0.0852675 0.0544729
-0.0279379 0.155215 -0.0039665
-0.0364388 0.0352264 0.0443258
-0.0771027 0.0689891 0.00817725
0.0442188 0.0833029 0.0251703
0.0133618 0.0523173 -0.0278769
0.000176932 0.0881362 -0.0348875
-0.0609289 0.112535 -0.0147528
-0.0141375 0.0347096 0.0460356
-0.0186908 0.0510113 -0.0307584
0.0228849 0.0849076 0.049031
-0.077886 0.0811556 -0.0096326
-0.0263231 0.034658 0.0434735
-0.034079 0.157748 -0.0116645
-0.0324882 0.0560654 0.0375153
-0.0455612 0.125305 -0.00846085
-0.0643722 0.0392301 0.0399397
0.00599322 0.131555 0.0161709
-0.0816849 0.073475 0.00953613
-0.0344884 0.0918084 0.0445658
-0.0802253 0.0772741 0.0285988
0.0141304 0.056278 0.0501629
-0.0245074 0.0384654 -0.0082311
-0.050904 0.119772 0.0333476
-0.0252176 0.0351344 0.0519405
0.0321818 0.0994934 0.0379171
0.0325099 0.0439072 0.0294151
-0.0811057 0.0748245 0.0195385
-0.0286955 0.175698 -0.00647862
-0.0100919 0.126182 -0.00573829
-0.0622192 0.17721 -0.0606003
-0.00277478 0.078376 -0.0365291
-0.0114916 0.0759418 0.0571389
-0.0414888 0.0437926 0.0421195
0.0502404 0.0581527 0.030355
-0.0532526 0.161216 -0.00188451
0.0100844 0.123139 0.0340691
0.055409 0.0509629 0.0218922
-0.0720681 0.0805547 0.0392361
-0.074941 0.152735 -0.0189
0.0444569 0.0444867 0.0259758
0.0318729 0.0380045 0.0237472
0.00837353 0.0479453 -0.0272176
-0.0265472 0.0384572 -0.00862977
-0.0632795 0.162306 -0.0238202
-0.0215296 0.0387791 0.0338148
-0.0346258 0.0408721 -0.0296689
-0.0639569 0.158297 -0.0475943
0.0542703 0.0575789 -0.00178727
0.00129902 0.039118 0.0292011
-0.064598 0.141073 0.0399979
-0.00175381 0.0993639 -0.0251444
-0.0560167 0.0334996 0.00451355
-0.067477 0.0336926 -0.00520632
0.0147782 0.034634 0.0233109
-0.0564439 0.115317 0.036137
0.0270369 0.0347621 0.0147774
0.0375648 0.0926236 -0.0120119
0.0398988 0.106999 0.0131638
-0.0127812 0.17424 -0.0204206
-0.00248977 0.112799 0.0419964
0.0105108 0.100431 0.0479236
-0.0689565 0.166538 -0.0215879
-0.0548269 0.0450002 0.0157095
-0.0144955 0.0701698 0.0547379
-0.0835093 0.13127 0.0505027
-0.0427238 0.072521 -0.0180673
-0.0301654 0.12556 0.01613
-0.045663 0.0367902 -0.0212772
-0.0158317 0.0382446 0.00839116
-0.0718125 0.0922256 -0.0157107
0.0111963 0.0864748 -0.0310924
0.0251982 0.123641 0.0075622
-0.0174889 0.0856455 0.0572522
-0.0701892 0.156285 0.021569
0.0588348 0.0704992 0.0161593
0.0212455 0.0791286 -0.0267859
-0.0605291 0.0337655 0.01588
-0.0695688 0.160974 -0.049948
-0.0407972 0.128426 0.00338476
0.0388076 0.0807597 0.0350812
0.0100662 0.0792875 0.0550109
-0.0261075 0.162258 -0.0150297
0.0394117 0.0870933 -0.0127933
-0.0568962 0.0970004 -0.0209687
-0.0488368 0.0970812 -0.0221898
0.0313861 0.0740897 0.0418701
-0.045508 0.0519257 0.0382686
-0.0313173 0.115081 -0.0157968
-0.0112898 0.0395292 0.0388441
0.00902499 0.0346466 0.0239397
-0.0899879 0.140645 0.0281829
0.0294673 0.106706 -0.01303
-0.0804668 0.131637 0.0521945
-0.0702433 0.163232 -0.0134117
0.0186534 0.103359 0.0446898
-0.0398611 0.0338561 -0.0163385
0.0228628 0.0351973 0.0171792
-0.0208078 0.081314 -0.039065
0.0044777 0.112767 0.0412512
-0.050497 0.0848226 0.0453947
-0.0888345 0.136443 0.0400961
-0.0706839 0.0363372 -0.00115986
0.0223181 0.0592817 -0.0260832
-0.0810037 0.0777776 0.0280061
-0.0739688 0.0653923 0.0119616
-0.0500333 0.148713 -0.00320857
0.0153592 0.0953434 0.0487033
-0.0629125 0.111049 -0.0145904
0.00208256 0.0392848 0.0328214
-0.0145507 0.0980154 0.0489953
-0.0524991 0.109798 0.0378325
-0.0865466 0.137714 0.00320362
-0.0353519 0.169773 -0.000327923
0.00107085 0.0391982 -0.0112505
0.0392359 0.0685928 0.0338195
-0.0373694 0.173381 -0.00150317
-0.00449535 0.0965559 0.0536663
-0.0224668 0.0384735 -0.00782567
-0.0341243 0.0335931 -0.0280196
-0.0800017 0.0786467 -0.00556567
-0.0525648 0.0515684 -0.00660684
-0.0600127 0.131125 -0.00733582
0.0243337 0.0605883 -0.0247185
-0.0896848 0.0929338 0.0144339
-0.0376939 0.0665912 -0.0149459
-0.0353519 0.169773 -0.000327923
-0.0534984 0.0776159 0.0431279
-0.0595413 0.0582322 0.0158865
-0.0869809 0.112371 0.0426661
0.0426825 0.0805137 0.0283126
-0.0367435 0.0437017 -0.0271198
-0.0345924 0.0485568 0.0396695
0.0255922 0.123349 0.0191129
-0.0225677 0.0932815 0.0503229
-0.0541424 0.033642 0.0190888
0.0162407 0.0793143 -0.0294472
0.00799401 0.0819204 0.0555296
-0.0618709 0.0338217 0.0137712
-0.070524 0.0682803 0.0295828
-0.0457806 0.0841121 -0.0213757
-0.0869334 0.0861006 0.0224549
-0.0910269 0.129538 0.0072515
-0.0925953 0.129683 0.0262582
-0.0838382 0.11616 -0.00137187
-0.0417803 0.126317 0.0192991
0.0563251 0.0686891 0.0234174
-0.0267843 0.0880044 -0.0350453
-0.0387577 0.150948 -0.00516845
-0.000517251 0.0386237 0.0468325
-0.0678163 0.0866062 -0.0177767
-0.0147266 0.0922559 -0.0359307
0.0325099 0.0439072 0.0294151
-0.0628762 0.0967673 -0.0179048
0.0180016 0.125305 0.0262968
-0.00874133 0.128614 -0.000328304
-0.0150057 0.127967 0.0215456
-0.0500652 0.125773 -0.00688378
-0.0876178 0.105003 0.0113725
-0.0563459 0.0335397 0.00260276
-0.0376189 0.0505906 -0.0108802
0.0428587 0.0803554 -0.00479839
-0.0403541 0.121097 -0.0120881
0.00450508 0.0688823 0.055725
-0.0731035 0.0667848 0.0215468
-0.0275166 0.057436 0.037149
-0.0358185 0.0337288 -0.0209957
-0.0134899 0.0951663 0.0534531
-0.0498545 0.0999668 -0.0218887
-0.0404937 0.0662835 0.0416604
-0.0721682 0.0657282 0.00147121
-0.0477624 0.119115 -0.0139706
0.04653 0.0760573 0.0105389
0.02687 0.0981666 0.0425225
0.00994371 0.0978413 -0.0235989
-0.0590849 0.0644137 0.0318252
-0.0791181 0.10724 -0.00560787
0.0302323 0.0969553 -0.0166472
-0.0267635 0.177003 -0.0181719
0.0240034 0.0449703 0.0396985
-0.0456524 0.0621788 -0.0131898
-0.0647638 0.0397203 0.0149016
-0.0629819 0.128219 -0.0083429
-0.0735087 0.137262 0.0493527
-0.0444607 0.0902688 0.0428496
-0.0394972 0.0591632 0.0405173
-0.073083 0.0981963 0.0397086
0.000886988 0.0365316 0.0205866
-0.0688943 0.103764 -0.0141878
-0.0542898 0.0343509 0.030786
-0.0199636 0.0668339 0.051351
-0.0394895 0.0478295 0.0398724
-0.0366932 0.0665933 -0.0149481
-0.0819874 0.0788394 -0.00151395
-0.0624744 0.163093 -0.0485882
-0.0923959 0.132359 0.0202239
-0.00990982 0.175697 -0.0247542
-0.0343047 0.125361 0.0205265
-0.0548571 0.0546624 -0.0043828
-0.0782331 0.109897 -0.00456592
0.0293811 0.04325 -0.00550019
-0.0246221 0.0450443 -0.0281165
-0.0638693 0.170945 -0.0476012
-0.067238 0.175347 -0.0588701
0.0248331 0.123944 0.0188283
0.0167269 0.0821369 0.052401
-0.0475211 0.165506 -0.00586183
-0.0553855 0.0337802 0.0222515
-0.0780713 0.150403 0.0367551
0.00658649 0.0945677 -0.0301242
0.027859 0.114683 -0.0075901
-0.0663198 0.150167 -0.0356652
-0.0171444 0.168289 -0.0207283
0.0109143 0.034258 -0.00287102
0.00151312 0.081484 0.0572224
-0.0654928 0.0818627 0.0433416
-0.0681305 0.148403 -0.0333773
-0.0252687 0.0931263 -0.0308668
-0.0155327 0.181625 -0.0208343
0.0287985 0.0385521 0.0262584
0.00429234 0.0668529 -0.0329804
-0.089989 0.142041 0.0291697
-0.0717214 0.0807275 -0.0154713
0.0433932 0.0691823 -0.000799598
-0.050567 0.0474222 -0.00850865
0.0231261 0.0431609 -0.0107258
-0.0928035 0.121507 0.0322842
0.00148883 0.121012 0.0365952
-0.041943 0.114992 -0.0156494
-0.0885678 0.139164 0.0111992
0.0181014 0.0354956 -0.0136744
0.0383861 0.0476151 -0.00591592
-0.00129201 0.123843 -0.0093277
-0.0740612 0.16798 -0.0430295
0.0196134 0.0505877 0.0439573
-0.00456935 0.0511652 -0.031379
0.0119513 0.0873992 0.0542929
-0.000693426 0.0367942 0.0054988
-0.0449113 0.0342791 0.0293115
-0.0588719 0.102608 -0.018764
-0.0616719 0.0410515 0.0160296
-0.0626214 0.149057 -0.0155813
-0.0714888 0.127424 0.0521873
-0.0117173 0.0642717 -0.0365887
-0.0339552 0.0695264 -0.0185169
0.0198288 0.120602 -0.00797301
-0.0814469 0.0761204 0.000521161
0.0546767 0.0732977 0.0167178
0.00339772 0.0418993 -0.0241367
0.0156241 0.128368 0.0211329
-0.0506409 0.0514954 0.0146147
-0.0650258 0.156351 -0.0487028
-0.0223265 0.0696009 0.0493961
-0.0231257 0.165273 -0.0171671
-0.0400541 0.128036 0.0139949
0.0267233 0.0347365 0.00732658
0.0367726 0.100261 -0.0101361
-0.0254657 0.0678395 0.0426887
-0.0477636 0.0797421 -0.0198355
-0.0465015 0.112315 -0.0168133
-0.0682947 0.162375 -0.0539731
0.0595736 0.0691817 0.0101411
-0.0074916 0.0518487 0.0520774
0.0224678 0.0975265 0.046211
-0.0533713 0.0334322 -0.00211203
-0.00891681 0.0351082 0.0414685
-0.0578499 0.140998 0.0321632
0.0464517 0.0750534 0.00718936
-0.0685663 0.0335043 0.000153325
0.0121568 0.0930338 -0.0284961
-0.0553906 0.073233 0.0409139
-0.00529252 0.125273 -0.00885488
-0.029898 0.0385093 -0.0112051
-0.0161733 0.168253 -0.0210405
-0.0521449 0.157571 -0.00396744
-0.0834291 0.14469 0.0401339
0.0323984 0.0396183 0.0260504
0.0213375 0.0536353 -0.0261911
-0.0902136 0.13513 0.0232187
-0.0119403 0.171322 -0.0192115
-0.0614924 0.0384787 0.0187446
-0.0752567 0.160324 -0.0108988
0.0316541 0.0351286 0.0116939
-0.0712116 0.15818 -0.0429219
-0.078183 0.161072 -0.0259393
-0.0461447 0.0396778 -0.0162811
0.0386236 0.0898511 -0.0127692
-0.0355275 0.04785 0.0396404
-0.0104302 0.175693 -0.0238578
-0.0385489 0.119476 -0.0123722
-0.0370734 0.0393951 0.0451959
-0.0194344 0.115555 -0.0163687
-0.0741431 0.153026 0.0335308
-0.0104794 0.0575747 0.0533869
-0.0143198 0.128437 0.0203415
0.00713618 0.103008 -0.0210892
-0.0625405 0.132491 0.039434
-0.0131682 0.0974746 0.0509922
-0.0651408 0.146773 0.0392721
0.0575508 0.0523393 0.00818574
-0.0417803 0.126317 0.0192991
0.00703854 0.0344034 -0.0150394
-0.049499 0.112564 0.0357174
0.0401757 0.067497 -0.00878165
-0.0701178 0.170154 -0.0291958
-0.0719281 0.148635 -0.0350398
0.0438502 0.081834 0.0262681
0.0499773 0.0719552 0.0208312
-0.0183092 0.162495 -0.00732366
-0.00211759 0.125578 0.0320366
-0.074953 0.131092 -0.00759533
-0.0504448 0.128295 0.0323161
-0.0654261 0.0391693 0.0381077
-0.0486888 0.138617 0.0104009
0.0381693 0.109765 0.0141664
-0.0461097 0.129234 0.00159921
-0.0890965 0.111935 0.0113594
-0.0668197 0.100942 -0.0159632
0.0387891 0.096727 0.0316453
-0.0234979 0.0724108 0.049066
-0.0339085 0.177047 -0.0109944
0.0438296 0.0973504 0.015162
-0.0929853 0.13101 0.0212315
-0.0249379 0.182957 -0.0150514
-0.0222065 0.179998 -0.0209469
0.0161292 0.0604031 0.0495734
-0.0715324 0.144165 0.0446205
-0.0582078 0.148218 0.0334722
-0.0218606 0.101624 -0.0238704
-0.0256221 0.0450194 -0.0280788
0.00234342 0.0510926 -0.0302041
-0.0707386 0.165621 -0.0179174
-0.0297126 0.0508986 -0.0203549
-0.051497 0.0776631 0.0434639
-0.0432671 0.0465873 -0.0113888
0.00614351 0.12581 -0.00755937
-0.0330003 0.0497903 -0.0153502
-0.0564752 0.0624455 0.0290854
-0.0181599 0.0393223 0.0394029
-0.037493 0.0605801 0.0408152
-0.0743879 0.143042 -0.00684484
-0.0705055 0.0343308 -0.00278598
-0.0241603 0.0665253 0.044272
0.0188415 0.121733 -0.00718615
-0.018238 0.0985224 -0.0244062
-0.00465552 0.0526099 -0.031899
-0.0275354 0.0822426 0.0485604
-0.0657234 0.153927 0.0319321
-0.0845601 0.0832447 0.0254813
-0.0280896 0.0549613 -0.0243859
-0.0725404 0.162229 -0.0113532
-0.00851004 0.0960786 -0.0317903
0.00136992 0.128685 0.0274437
-0.0202009 0.17418 -0.0222934
-0.00853806 0.120181 -0.0133625
-0.0578149 0.12313 -0.00798101
-0.0119534 0.0385403 0.00164014
-0.0705692 0.037778 -0.000833243
-0.0261802 0.161053 -0.0142499
-0.0670377 0.155239 -0.0519345
0.0153369 0.0552331 -0.0286287
-0.032502 0.104286 0.0408563
0.00946024 0.0346841 0.0420404
-0.029871 0.0459583 -0.0272702
-0.0842337 0.150005 0.032317
-0.0064886 0.118022 -0.0150746
0.0292295 0.102131 0.038919
0.0302883 0.103408 0.0369471
-0.0335041 0.0789099 0.0415331
-0.0619528 0.15527 -0.030594
-0.0709378 0.0995366 0.0403447
-0.0353308 0.0347033 0.016646
-0.0339899 0.0738027 -0.0224777
-0.059855 0.0594826 0.0200848
0.0406411 0.0462159 0.0309092
-0.0424937 0.0790081 0.0428161
-0.0623778 0.167137 -0.0608155
0.0393368 0.0984458 -0.00682083
0.0235742 0.124212 0.0226421
-0.0675078 0.167827 -0.0267933
0.00732004 0.0351406 -0.00439972
-0.0853981 0.109039 0.0213496
-0.0364913 0.113889 0.0338295
-0.0627541 0.166279 -0.0425846
-0.0421212 0.159153 -0.0103433
0.000496502 0.103028 0.0440499
0.0288107 0.113482 -0.00830654
-0.086501 0.0833246 0.0174861
-0.0225096 0.10992 0.040117
-0.0220536 0.0952953 -0.0290683
-0.00151223 0.107257 0.0435513
-0.075369 0.155134 0.0270903
-0.0889751 0.0969295 0.00842099
-0.0344427 0.15352 -0.00733684
-0.0942425 0.120105 0.0182851
0.00724524 0.0369774 0.0269173
-0.0197872 0.118912 -0.0118682
0.0262791 0.0675449 -0.0231801
-0.0324319 0.159505 0.00208324
-0.0174373 0.0336888 -0.022956
-0.00258285 0.0361873 -0.0247048
0.0523857 0.0624129 -0.0025136
0.00229927 0.0641027 -0.0339638
0.015143 0.0346779 0.0251566
-0.0548348 0.124111 0.0382711
0.0525444 0.0728335 0.00848027
0.0427332 0.084569 0.0284544
0.0408155 0.0939721 0.0292858
0.00096833 0.121103 -0.0124156
0.0576451 0.0661396 0.0235216
-0.0755036 0.121787 0.0531411
-0.00789661 0.098211 -0.0280331
-0.0280195 0.0378733 -0.0295429
0.0123335 0.0581189 -0.0294366
-0.0358424 0.095771 -0.0231986
-0.0790801 0.0704064 0.00826811
0.00852849 0.0646614 0.0551736
0.0431391 0.098698 0.00317491
0.0582269 0.0686747 0.0208601
-0.0508059 0.0898498 -0.0218327
-0.0594926 0.112518 0.0361699
-0.0353285 0.0851433 -0.0237512
0.0581139 0.0523629 0.0131822
-0.0394926 0.102848 0.0402648
0.0494272 0.0628335 -0.00296645
0.0226049 0.0994887 0.0451477
-0.0728722 0.0355547 0.00103582
-0.0135559 0.0378433 -0.0166597
-0.0785092 0.126003 0.0529555
0.00812607 0.108726 -0.0199063
-0.0685642 0.0406581 -0.00126009
-0.0345343 0.126083 0.0189612
-0.0689171 0.158096 -0.0529848
-0.0753884 0.151441 -0.0109145
-0.0431622 0.0422126 -0.0213185
-0.0731992 0.145774 -0.0148545
-0.00627368 0.128136 0.0276028
-0.0350329 0.037518 0.0477355
-0.0809073 0.123633 -0.00507492
0.0149217 0.127634 0.0251635
-0.0444968 0.0747696 0.0424527
-0.0813623 0.104616 -0.00457868
-0.0730595 0.110042 0.0423406
0.0422139 0.06433 -0.00247442
-0.0237194 0.0639841 -0.033754
-0.0675079 0.104205 0.0395869
-0.0416597 0.057808 -0.0117566
-0.0414975 0.0916447 0.0424797
-0.0817429 0.0748341 0.0165378
-0.0682308 0.180685 -0.0584278
0.012627 0.12184 0.0342326
-0.0865386 0.147279 0.0332936
-0.0104895 0.115533 0.0397944
0.0144947 0.105783 0.0434399
-0.0423449 0.122373 -0.0114097
-0.0014976 0.0856652 0.0573264
-0.0864551 0.137921 0.0433346
-0.0884421 0.133772 0.0426038
-0.0708871 0.119431 -0.00850422
-0.0526322 0.0603614 -0.00917272
0.0113671 0.0479427 -0.0268055
0.0356609 0.104701 0.030636
-0.019502 0.109944 0.0407387
-0.0338224 0.0338142 0.00692539
-0.0628106 0.0420167 0.0410925
-0.0269157 0.0703179 -0.0345192
-0.00625132 0.0383797 0.0174726
-0.0385209 0.128019 0.0130694
-0.000764451 0.0769261 -0.0359174
0.0287147 0.0352518 0.00538775
-0.0294793 0.0446083 0.0503994
0.00946392 0.0472926 0.0483305
-0.0800654 0.121688 0.0502425
-0.0700794 0.154941 0.0289273
-0.0563344 0.154371 0.0236088
-0.00881167 0.085499 -0.0379404
-0.0172406 0.178621 -0.0252251
-0.0891661 0.132396 0.0419315
-0.00955085 0.0385956 0.00389466
-0.0667327 0.078026 -0.0171522
-0.0135045 0.0870342 0.0571061
0.0434691 0.0624283 0.0290897
-0.0396286 0.0534411 -0.011004
0.0276821 0.0862408 0.0453967
-0.000640169 0.0481947 -0.0300913
-0.0586891 0.065984 -0.0090861
-0.0520173 0.146257 0.0174096
0.0488884 0.0431235 0.0112233
-0.0879813 0.0860844 0.0054873
-0.0781065 0.0948585 -0.0115273
0.0363552 0.112269 0.0088181
-0.0202902 0.0906146 -0.0362948
-0.0657515 0.154274 -0.0462128
-0.0674015 0.178779 -0.0526749
-0.019773 0.0742847 -0.0390372
-0.0698715 0.11424 0.0504282
0.0179084 0.127905 0.00771503
-0.0889154 0.0875162 0.0124615
-0.0146057 0.0406867 -0.0271172
0.0461434 0.0834347 0.0111711
-0.0581213 0.151582 -0.000807379
-0.019309 0.0362824 -0.0277788
0.0488619 0.047436 -0.000620948
-0.0880973 0.137764 0.00820327
-0.0862013 0.10903 0.0113533
0.0379734 0.0672941 0.0355158
-0.0657382 0.0436129 0.0101245
-0.0311645 0.0580869 -0.017406
-0.0306641 0.062253 -0.0214244
0.0283559 0.116347 0.030146
-0.0531145 0.157563 -0.00324336
-0.0485262 0.0344313 0.0301756
0.0375907 0.0937201 -0.0111657
-0.0637771 0.0824308 -0.0191299
-0.0796191 0.0899783 0.0351979
-0.0545162 0.049049 -0.0054035
-0.0470606 0.0628926 0.0375096
0.0450698 0.0805625 0.0231647
0.0401046 0.0466866 0.0313873
-0.0739012 0.112096 -0.00769672
0.0432611 0.071972 -0.00279979
-0.0245442 0.0708437 0.0459353
-0.0783775 0.103446 0.0335489
-0.06188 0.164622 -0.0566003
-0.091634 0.141989 0.0201675
-0.032734 0.120436 -0.00935257
-0.0634008 0.115527 0.0417242
0.043113 0.0972735 0.00118522
-0.010631 0.0389663 -0.00962591
-0.0233093 0.162498 -0.00577898
-0.0374892 0.112529 0.0350998
-0.0616059 0.160004 -0.0295877
-0.0323685 0.0497273 -0.0163483
-0.0534917 0.0491191 0.0286591
-0.0764226 0.102162 0.0358668
-0.0332242 0.152554 -0.00262082
0.0422255 0.0887323 -0.00780894
-0.033406 0.159477 0.0024166
-0.0689415 0.128234 -0.0091158
-0.0616544 0.15599 0.0144357
-0.0364795 0.0519621 0.0386972
-0.0023893 0.0424447 0.047211
-0.0237817 0.0727523 -0.0377511
-0.0659606 0.17389 -0.0478108
0.0444691 0.0790854 -0.00178456
-0.0879259 0.102339 0.0203636
-0.0652725 0.0613084 0.02088
0.00750328 0.0532576 0.0522142
-0.00904474 0.102005 -0.0240096
-0.0153586 0.171251 -0.0171482
-0.0785283 0.124553 0.0522615
-0.0488679 0.135513 0.00441971
-0.0616908 0.156845 -0.0305919
-0.0675863 0.0915604 0.0429945
-0.075455 0.0675485 0.016865
-0.061495 0.100138 0.0425963
-0.027122 0.166756 -0.0173778
0.00137166 0.0465972 -0.0284573
-0.00249784 0.0939038 0.0553992
-0.0723216 0.169832 -0.0271166
-0.0496962 0.137023 0.0203775
0.0256941 0.120543 -0.00190068
-0.0365029 0.0818729 0.0434567
0.046121 0.0848311 0.00917504
-0.058796 0.0868581 -0.0207882
0.0555717 0.0706847 0.00515518
0.0408171 0.04213 0.0255289
-0.0686614 0.0735088 -0.0131618
-0.00134544 0.0999407 0.0490888
-0.00290933 0.0388493 0.0285794
0.0272121 0.088765 -0.0222319
-0.0636401 0.0337302 0.00992182
-0.0579449 0.059547 -0.000261977
-0.0774969 0.130279 0.0531227
0.0108274 0.0362708 -0.0225637
0.021889 0.0963552 -0.0220144
-0.0870945 0.0846532 0.00548002
0.0267481 0.0659374 0.0438828
-0.00749239 0.096543 0.0535421
0.0397392 0.0658643 0.0327972
-0.0771859 0.109877 -0.00559641
-0.0249827 0.0918474 0.0485489
0.0335055 0.0549395 0.0359782
-0.0672213 0.1608 -0.0122924
-0.0616465 0.0397266 0.0174413
-0.0235467 0.119499 0.0316537
0.0333307 0.040756 0.0270424
0.0379293 0.0417908 0.0270611
-0.046701 0.144949 0.00345496
0.00250208 0.0547919 0.0536548
-0.090122 0.144414 0.0285066
-0.0202818 0.0386671 -0.01315
-0.0894686 0.136415 0.011209
0.00384566 0.0341227 -0.0209701
0.040546 0.0860518 0.0323351
-0.0397746 0.0826803 -0.0210594
-0.0519166 0.0545256 0.0236155
-0.0739928 0.155924 0.011504
0.0509675 0.0463703 0.0218015
-0.0464999 0.104301 0.0412272
-0.0409256 0.153594 0.00561766
0.0163666 0.0522247 -0.0268816
-0.0192371 0.0959207 0.0497533
-0.0439563 0.147482 -0.0018962
0.0336335 0.0713894 0.0398251
-0.0231964 0.0651165 0.0447582
0.0263272 0.0545944 -0.0208638
-0.0240288 0.0385625 0.0316972
-0.0701023 0.177167 -0.0478719
-0.0858985 0.111778 0.0253403
-0.0276074 0.0356491 0.0527176
0.0424902 0.0555855 0.0321183
-0.00470812 0.0669686 -0.0349707
0.0122616 0.0765812 -0.0308581
0.0592303 0.0580467 0.0201933
-0.0230193 0.120798 -0.0098328
0.0385799 0.0739884 0.0346445
-0.0858246 0.111645 0.00429163
0.0391881 0.0673984 -0.0107969
-0.0204991 0.12085 0.0318342
-0.0631641 0.149054 -0.0215452
-0.0206221 0.0450432 -0.0278804
-0.0704834 0.174975 -0.0436743
-0.0614974 0.0904473 0.0454009
0.0274881 0.0349726 0.0165028
-0.0576833 0.0660478 -0.00944709
-0.0097165 0.0698878 -0.0366754
-0.0108819 0.168382 -0.0176467
-0.0308705 0.0385373 -0.0301935
-0.00985903 0.128582 0.0248602
-0.0759458 0.0974591 -0.0125133
-0.0913521 0.14609 0.0171489
-0.0699149 0.161541 -0.0103834
-0.0379322 0.0359407 -0.029738
-0.0791449 0.166643 -0.0339646
-0.0311112 0.162246 -0.0146263
-0.0425015 0.0719333 0.0422422
-0.0465141 0.0518831 0.0377757
-0.0512486 0.0474505 0.019655
-0.0584823 0.080492 0.0436889
-0.0894255 0.0956236 0.0134235
-0.022854 0.100181 -0.0240549
0.0296013 0.119582 0.02204
0.0549279 0.0723085 0.00788581
0.0101747 0.096292 -0.0259611
-0.0385431 0.038993 -0.0286239
-0.0184671 0.10319 -0.0232847
0.0437182 0.0944809 0.000197915
-0.0738758 0.0993275 -0.0132564
-0.0911632 0.133688 0.01322
-0.0528885 0.108408 -0.0187758
0.00451933 0.0800063 0.0560543
-0.0497918 0.143216 0.0113941
-0.0729034 0.123797 -0.00826534
0.0327757 0.035977 0.0148418
0.0364442 0.0590953 0.0349595
-0.0310423 0.0467686 -0.0260418
-0.00649673 0.121064 0.0364033
0.0151613 0.0863718 -0.029541
0.0544186 0.0725633 0.0195702
0.0113952 0.116794 -0.0158535
0.018594 0.125548 0.0250901
-0.0217098 0.115215 -0.0159934
-0.0471085 0.0683456 0.0397676
-0.0659208 0.0390922 0.037189
-0.0431166 0.0378307 0.0441123
-0.0457331 0.0753099 -0.0177194
-0.0662716 0.170413 -0.0392349
-0.0903031 0.113239 0.0103302
0.0416778 0.102863 0.015161
-0.0647368 0.0350417 0.0261211
0.060777 0.0637293 0.0161648
-0.0501127 0.0337803 -0.0127711
-0.0459794 0.167363 0.00259136
-0.0534816 0.0491363 0.0336594
0.00697022 0.12731 -0.00520393
0.0166879 0.0355485 0.0409566
-0.0618294 0.0342021 0.0275686
-0.0672139 0.168667 -0.0295504
-0.0368889 0.109941 -0.0191779
-0.046283 0.129949 0.00285861
0.0174939 0.0350076 -0.00788091
0.00724322 0.0361893 0.0456372
-0.0558448 0.0533792 -0.00239414
0.0124134 0.0346609 0.020994
