ply
format ascii 1.0
comment VCGLIB generated
element vertex 1460
property float x
property float y
property float z
end_header
0.202018 -0.2419811 -0.2849171 
0.05188264 -0.6714534 0.5388854 
0.03948604 -0.6537699 0.5434393 
-0.6561443 -0.3931492 -0.0368495 
0.04017281 -0.6163105 0.5551407 
-0.6626778 -0.4042452 -0.02490189 
-0.6058369 0.4539232 -0.008723292 
-0.4168606 -0.6568446 0.1343618 
-0.4808364 0.5810234 -0.5545767 
-0.4389864 -0.7238993 0.1641835 
-0.3863454 0.3672453 0.1921653 
-0.4110216 0.482546 0.08783209 
-0.6501887 0.6238748 -0.3802742 
-0.5004069 -0.7892136 0.1977238 
-0.5078396 -0.825892 0.2119797 
0.04517554 -0.5143301 0.5807045 
0.03924759 -0.4935605 0.5772872 
-0.09686355 -0.0005234741 -0.1182336 
-0.4881598 -0.7209902 0.3880009 
0.0425773 -0.4565541 0.5890752 
-0.4153187 0.4876257 0.06685263 
-0.4013897 0.4953556 0.07482264 
-0.2778648 -0.7250784 -0.1315608 
0.0366061 -0.4061636 0.5994636 
-0.7326326 0.3508347 0.3684388 
0.04178465 -0.3695399 0.6070214 
-0.7406108 0.3225521 0.393462 
0.04854847 -0.3304682 0.6053742 
0.1333857 0.06889936 0.3975204 
-0.7493281 0.3025936 0.4047362 
-0.6233903 -0.2651857 -0.108879 
-0.787467 0.1596198 0.4323001 
0.05045009 -0.2733351 0.5972841 
-0.8050877 0.04749405 0.4556415 
-0.7944165 0.1577006 0.3668674 
-0.8022887 0.02678698 0.4486205 
-0.684101 -0.1423402 0.3540832 
0.03714678 -0.1475552 0.4781975 
-0.7005212 -0.1860509 0.3534873 
0.04729188 -0.1534345 0.4926329 
0.04520598 -0.129532 0.4676335 
-0.7016059 -0.2043962 0.3551293 
-0.6876073 -0.2149315 0.3689273 
-0.6885502 -0.2602865 0.3675852 
-0.1581893 0.6787859 -0.08396852 
0.7056608 -0.7100592 0.1166379 
-0.7016286 -0.2921945 0.3507073 
-0.000205081 -0.8507432 -0.1798349 
-0.6913329 -0.3086606 0.3626809 
0.04862246 -0.003709383 0.4350172 
0.04534755 0.01389728 0.4245276 
-0.6923261 -0.3312246 0.355969 
0.04291546 0.032753 0.4126912 
-0.6893094 -0.3558474 0.3470446 
0.03509682 0.07863343 0.3740172 
-0.3726948 0.373229 -0.0004069526 
-0.4874192 0.4536988 -0.2170172 
-0.3633479 0.3550053 0.00427597 
0.7573547 -0.6142461 0.08859333 
0.4422835 -0.3539168 -0.1839401 
0.5898898 -0.2177516 -0.004688861 
0.3672538 -0.7350287 -0.165039 
0.4023243 -0.7739666 0.4159997 
0.4143261 -0.7666503 0.4011463 
0.1504616 -0.2795179 -0.3082891 
0.1375881 -0.2676737 -0.3107278 
0.6115153 -0.1958951 0.192604 
0.7855979 -0.5636802 0.1393857 
0.5187201 -0.1250749 -0.06957151 
0.5172001 -0.1469653 -0.0801187 
0.5031707 -0.1281206 -0.0861634 
0.04227814 -0.7438603 0.5230789 
0.1375776 -0.2871492 -0.3149005 
0.5719608 -0.2635439 0.3471635 
-0.6825534 -0.3869827 0.3266129 
0.04192257 -0.7274048 0.5145371 
-0.6775473 -0.3780434 0.3433742 
-0.1553159 -0.831564 -0.2605657 
0.06469439 -0.6869916 0.5312425 
-0.7593517 -0.04630936 0.1629817 
-0.5287715 -0.8322176 -0.03703463 
0.05139481 -0.6355918 0.5521474 
-0.083208 -0.7989452 -0.1042998 
0.05458046 -0.5979391 0.5681189 
0.491848 -0.4184077 -0.1456388 
0.3552561 -0.8099889 0.4420589 
0.05192643 -0.5571114 0.5845344 
0.0491323 -0.5354074 0.5842936 
-0.7736303 0.218624 0.4283459 
-0.7975731 0.3165211 0.2697902 
-0.2820631 0.3827803 0.09095523 
-0.5167535 -0.8085862 0.1976072 
0.0519618 -0.4767329 0.5849999 
-0.5191202 -0.8329218 0.1978143 
0.04093793 -0.4232253 0.5960487 
0.2334754 -0.1363377 -0.1724512 
0.05702379 -0.4148793 0.6011615 
0.04955982 -0.3913818 0.6045121 
-0.748827 0.3303539 0.3717012 
-0.7572554 0.3070759 0.3848773 
-0.4064922 -0.851024 0.177651 
-0.650863 -0.344106 0.3918645 
0.0565133 0.6123708 -0.2367818 
-0.3492401 -0.8521206 0.04793873 
0.05612171 -0.2934324 0.6003241 
-0.6496092 -0.3209153 0.4022008 
0.3797962 -0.2933035 -0.2126359 
0.06847996 -0.2546112 0.596597 
-0.3224603 0.5269046 -0.03988397 
-0.2702758 -0.8519289 -0.1558501 
0.03682213 -0.2129381 0.576883 
-0.6467933 -0.0001751222 0.5311965 
-0.6398689 0.0141939 0.5433573 
-0.3259318 0.42948 0.1161333 
-0.6946774 -0.1298208 0.339848 
0.7670626 -0.5394768 0.08381201 
-0.6999628 -0.1517348 0.3426779 
-0.2333939 -0.8529587 -0.2004016 
0.0680963 -0.1302587 0.4680515 
-0.1493814 -0.7052953 0.5031955 
-0.7012448 -0.2259606 0.3546507 
0.05405734 -0.08087711 0.4646142 
0.04975723 -0.04407497 0.4542848 
0.6759501 -0.7414686 0.1582921 
-0.700467 -0.2479991 0.3531392 
-0.7004411 -0.270218 0.352383 
-0.3209718 0.4117572 0.1183964 
-0.2017277 -0.8513455 0.1290272 
-0.6181899 -0.06707382 0.4141598 
0.1423458 -0.06516667 -0.171991 
-0.6333969 -0.3649262 -0.07165058 
0.07226147 0.0752707 0.3857301 
0.05523089 0.0822279 0.3763026 
-0.6212122 -0.3696908 -0.08329213 
-0.286255 -0.333374 -0.1698115 
-0.536141 -0.7515617 0.027042 
-0.5333057 -0.7584454 0.009702708 
-0.779815 -0.2477886 0.1988036 
-0.6254729 -0.1342675 -0.07714619 
-0.7864577 0.2618491 0.1848851 
-0.7929661 0.2839921 0.1860692 
0.2448393 -0.2787803 -0.2793839 
-0.7252071 -0.3372924 0.2821442 
-0.3342492 0.3981856 0.1292665 
0.05881475 -0.7415649 0.5163332 
-0.3943245 0.314335 0.2295463 
0.0578021 -0.6987371 0.5189054 
-0.4311465 -0.6978926 0.1381364 
-0.7203378 0.3955776 0.1199487 
0.06252763 -0.6542652 0.5491205 
-0.4629769 -0.7178422 0.1349147 
0.06482308 -0.6179327 0.5614001 
0.2910965 -0.8361238 0.1876161 
-0.5009313 -0.7710927 0.1830446 
-0.5041285 -0.7351503 0.3859287 
-0.7472569 0.3477078 0.3523163 
-0.7644598 0.3100143 0.363901 
-0.6444274 -0.1524464 0.3926345 
0.6075153 -0.7700482 0.07058682 
0.5311978 -0.4872038 -0.1051143 
-0.7690523 0.1002656 0.493738 
-0.2453406 -0.09906413 -0.162868 
0.06583322 -0.4598458 0.5971338 
-0.7395853 -0.1114391 0.07517058 
-0.2587289 -0.7129657 -0.1319619 
0.07001781 -0.3964059 0.6047767 
-0.4982466 0.5128148 -0.2913544 
-0.3356284 0.3518743 0.1220569 
0.06322371 -0.3747631 0.6069332 
0.05603753 -0.352421 0.6078811 
0.07090896 -0.3356073 0.6036823 
0.2491542 -0.8132701 0.3648712 
0.06289671 -0.3138879 0.6026931 
-0.7067326 -0.1727843 0.3432753 
0.07093973 -0.2780288 0.5994706 
0.1430103 -0.8086556 0.5000565 
0.226487 -0.1191161 0.4739428 
-0.4691802 -0.7503671 0.2829847 
0.05987846 -0.2044035 0.5725508 
-0.7127821 -0.2579462 0.3377122 
0.06447342 -0.1865666 0.5570456 
0.619615 -0.3176937 0.2626457 
0.06709588 -0.1718386 0.5403172 
-0.7038058 -0.3134113 0.3453827 
0.5873912 -0.7897726 0.1793911 
-0.5042005 -0.3401255 -0.1523369 
-0.7045634 -0.3355135 0.3375128 
-0.7031235 -0.3570355 0.3275377 
-0.6911355 -0.3714844 0.3329712 
0.05734269 -0.1444414 0.4806869 
0.3578186 -0.2041285 -0.190494 
-0.1980474 -0.05053576 -0.1473551 
0.5603281 -0.1236229 0.2977529 
-0.254588 -0.8528004 -0.1974367 
-0.3756103 -0.707049 0.2135036 
-0.2857491 0.4526038 -0.06167398 
-0.3056968 0.4558816 -0.05487579 
-0.5094996 -0.8468518 -0.04069213 
-0.8311196 0.09636673 0.2341815 
-0.4455538 -0.5509832 -0.01596038 
0.06610032 -0.006496429 0.4387144 
-0.4479941 -0.7042957 0.1263139 
0.0652464 0.008775413 0.4306873 
0.06463773 0.02658021 0.4195151 
0.06308044 0.04512438 0.407336 
0.06126092 0.0603591 0.3962374 
-0.4790298 -0.7291086 0.1443177 
0.7702541 -0.5223799 0.09788916 
-0.2798122 -0.1883503 -0.1816187 
-0.5184678 -0.7868423 0.1834947 
-0.2900446 -0.1670103 -0.1759444 
-0.7724753 0.3863299 0.1907013 
0.5828909 -0.1813172 0.0009852014 
-0.5340536 -0.8035278 0.1822278 
0.6952956 -0.5985397 0.3257677 
0.6861559 -0.5842075 0.331238 
0.6168129 -0.4323874 0.04130949 
-0.5316578 -0.8211249 0.1902964 
-0.385659 0.5139393 0.05137567 
-0.7604346 0.3293004 0.3505946 
0.2716402 -0.8372662 0.1526638 
-0.7785491 -0.1859342 0.1890709 
0.07409315 -0.6720009 0.5436257 
-0.1619247 -0.7088066 0.4912395 
-0.169083 -0.6809108 -0.1557841 
0.07487502 -0.6366665 0.5578156 
-0.165091 -0.8470622 0.1967353 
-0.5658906 -0.7570518 0.07355894 
0.07283129 -0.5634394 0.5864769 
-0.05199867 0.7467293 -0.1608978 
-0.7047771 -0.1194967 0.3258843 
-0.7088014 -0.1391145 0.329356 
0.06613431 -0.5186337 0.5863389 
0.06009619 -0.4971925 0.5829453 
-0.7572796 -0.03640405 0.1184877 
0.07037638 -0.4809426 0.5884594 
-0.05227678 -0.8525286 -0.2081795 
-0.7140197 -0.2357281 0.3393342 
-0.7113106 -0.2980942 0.3365941 
0.004891466 -0.8128392 -0.1311467 
0.2380371 -0.05097449 -0.1580066 
-0.5367278 0.1151625 -0.05095195 
-0.5523031 0.1029486 -0.05107282 
-0.5455123 -0.4572631 -0.0776301 
0.07825751 -0.3583893 0.6050106 
-0.6503239 0.2735562 -0.01637711 
0.08455706 -0.3183547 0.5983647 
-0.07983734 -0.228957 0.5345901 
-0.01192074 -0.8395616 0.4807659 
-0.1994776 -0.000900466 0.364556 
-0.4648726 -0.4640588 -0.1139428 
0.08511554 -0.2672094 0.5980495 
0.08396135 -0.2336791 0.5905308 
-0.5450436 -0.8215133 0.178664 
0.07981317 -0.2135876 0.5803279 
-0.7592133 0.3447016 0.3349345 
-0.3556424 0.0268104 0.3496681 
-0.7845718 0.0878534 0.4825643 
0.5876721 -0.5801275 -0.00496326 
0.5737552 -0.1610886 -0.004916631 
-0.260869 -0.2021603 -0.1864984 
-0.7158926 -0.1298339 0.3179569 
-0.7146 -0.1590029 0.3305486 
-0.7204139 -0.1792568 0.3301697 
0.2998631 -0.842012 -0.1330348 
-0.7120059 -0.1928228 0.342368 
0.07477385 -0.08753796 0.4690607 
-0.7142584 -0.2137524 0.3413565 
0.06798298 -0.06176215 0.463049 
-0.491191 0.4677316 -0.1988126 
-0.712099 -0.2795775 0.3372237 
-0.7155057 -0.3150858 0.3258045 
-0.7146833 -0.3389872 0.3186693 
0.08442757 0.01798692 0.4258942 
-0.7117347 -0.359987 0.3074687 
-0.8035215 0.1882949 0.219197 
-0.2619325 -0.2238847 -0.191198 
-0.6058903 -0.4564194 -0.03232725 
-0.4510885 0.4479795 0.06229495 
-0.5359589 0.3467245 -0.2471119 
-0.482855 -0.7207128 0.1262901 
-0.5359581 -0.7857872 0.167998 
0.5635082 -0.1417641 -0.01055887 
-0.5490323 -0.8045674 0.1669397 
0.1025274 0.05655735 0.4043205 
0.07401139 -0.7597837 0.5180664 
-0.004540795 -0.8164631 0.5423741 
0.08835477 -0.7171396 0.507915 
0.08622767 -0.6876926 0.5339512 
0.09645362 -0.6732029 0.5473198 
-0.5371245 -0.8132318 0.3273429 
0.08512041 -0.6556197 0.5546145 
-0.7685457 0.3282095 0.3345065 
0.08784404 -0.6194178 0.5660682 
0.6067116 -0.7401304 0.0276835 
-0.5584692 0.3133746 -0.1505002 
-0.6979263 -0.07672792 0.3172022 
0.0697669 -0.5412581 0.588984 
-0.7161726 -0.1132722 0.3103331 
-0.721709 -0.1463427 0.3178426 
-0.7275358 -0.1657088 0.317818 
0.08393464 -0.498738 0.5878957 
-0.7330008 -0.1852634 0.3160595 
-0.7250485 -0.2000967 0.3284504 
-0.7269239 -0.246106 0.323569 
0.09321845 -0.4265922 0.6126819 
-0.2088302 -0.8437844 0.2591977 
0.08911723 -0.4024263 0.6099862 
-0.7201047 -0.2911998 0.3226955 
0.08415479 -0.3809419 0.6058665 
-0.7219315 -0.3239206 0.3096375 
-0.03822592 0.6167943 -0.1258581 
0.09637026 -0.3415707 0.5998893 
-0.1977754 0.5865738 -0.1124136 
-0.6265 -0.4075182 -0.05705571 
0.2453727 -0.8461573 0.04572508 
-0.3124431 -0.8440194 -0.1907003 
-0.6994796 -0.4030897 0.2509229 
-0.7150605 -0.402162 0.08261626 
-0.5511538 -0.7899684 0.1485563 
0.1725453 0.07893208 0.3824524 
-0.5488082 -0.8388411 0.1675762 
-0.7579085 0.361517 0.3157213 
-0.4910113 0.4106777 -0.22321 
-0.7791245 0.3148377 0.3233136 
-0.7564346 0.1356637 0.4976009 
-0.2637561 -0.242301 -0.1926704 
-0.7271238 -0.1321883 0.3052769 
0.2821332 -0.8445539 -0.01412626 
0.1765891 -0.8149005 0.3986953 
-0.7275819 -0.2225677 0.3256465 
0.6282214 -0.3034072 0.09057146 
0.09513754 -0.7571652 0.5107969 
-0.7238757 -0.2690887 0.3227116 
0.2680586 -0.7644561 0.4797053 
-0.701941 -0.4226737 0.08834861 
0.6641482 -0.6275493 0.3372367 
-0.3792372 -0.6443353 0.1763104 
0.179167 -0.7937326 -0.05153886 
-0.4966933 0.522907 -0.3695981 
0.5458196 -0.1076471 -0.001405915 
0.1915249 -0.796884 -0.06868652 
0.576028 -0.1107716 0.05367208 
-0.3224303 0.3951027 -0.02466385 
-0.2498676 -0.2818321 -0.1883344 
-0.3327283 0.1680964 0.2641634 
-0.5399662 -0.7569489 0.1363703 
0.5810835 -0.2328044 -0.03880748 
-0.1098276 0.4323082 -0.02308595 
-0.772175 0.3388591 0.3187843 
-0.1430244 0.4182991 -0.01267873 
-0.02438771 0.583016 -0.1193955 
0.2039452 -0.8445408 0.1070678 
-0.7344392 -0.153317 0.3045215 
-0.1210718 -0.2365604 -0.2658596 
-0.7381713 -0.1716085 0.3057877 
-0.7254459 0.2242249 0.03918265 
0.4374684 -0.5649083 0.4663336 
-0.2067986 0.4482969 0.0685007 
-0.7383842 -0.2066083 0.3122818 
0.4156713 0.02245174 -0.03715719 
-0.1428236 0.4440872 0.03423668 
-0.155719 0.4574736 0.04613506 
-0.7374663 -0.2588903 0.307991 
-0.7319689 -0.2821838 0.3071374 
-0.7369378 -0.2978135 0.2894512 
-0.7727708 -0.144616 0.2033613 
-0.4281072 -0.6961765 0.3686213 
0.4032324 -0.495465 0.4819255 
0.3895916 -0.4889688 0.497005 
-0.3816436 -0.6650657 0.1715058 
0.2475969 -0.3072008 0.5846057 
-0.2624813 -0.2924556 -0.1795212 
-0.5859677 0.4005527 -0.413974 
0.3838878 -0.8175598 0.3585343 
0.5038854 -0.4809916 0.4251587 
-0.423581 -0.7558938 0.2247087 
-0.00129324 0.5050367 -0.06994884 
0.5060683 -0.2176888 0.4247293 
-0.5495536 -0.7722906 0.1382998 
-0.5632179 -0.7766749 0.1290817 
0.4865294 -0.4115582 0.4500937 
-0.1878894 0.4127699 -0.04060348 
0.5735723 -0.7938346 0.08712158 
0.2435637 -0.3252384 0.5849508 
-0.7882448 0.3086956 0.3076229 
0.61911 -0.2929754 0.2566547 
0.7709688 -0.5518482 0.2418405 
-0.02873877 0.06960683 0.3549138 
-0.286518 0.4017458 0.1009004 
-0.7407031 -0.1386576 0.2890355 
0.2715649 0.0740573 0.3760557 
-0.4932987 0.6386754 -0.5305022 
-0.4413854 -0.7015613 0.3583081 
-0.7452334 -0.1882965 0.3001517 
-0.7421277 -0.2327881 0.3065891 
0.3094262 -0.364812 0.5648174 
0.3307563 -0.3660662 0.5586346 
-0.489051 0.618752 -0.5260741 
0.3376225 -0.5831613 0.5190511 
-0.7490027 -0.2512933 0.2939107 
0.5174396 -0.4652175 0.4149559 
-0.769296 0.07790065 0.4975272 
-0.7739161 -0.271402 0.1879849 
-0.6213506 -0.1181494 -0.07304941 
-0.6390959 -0.4417624 -0.02114868 
0.4278487 -0.01121707 -0.05677809 
-0.6375265 -0.4300806 -0.0336118 
0.5592815 -0.1733849 0.3311023 
0.0003338158 -0.7947265 0.4209208 
-0.08148964 0.5105904 -0.03816152 
-0.02932009 -0.802747 -0.1245958 
-0.08049894 0.4994846 -0.02348627 
-0.6149944 0.3286689 -0.1017092 
-0.7923881 0.293008 0.2987736 
-0.7851368 0.3274547 0.3046105 
-0.1607769 0.5378456 -0.02759218 
0.4832238 -0.7077131 0.3525402 
0.4649816 -0.1714942 0.4373969 
-0.5622417 -0.8117939 0.1516485 
0.4492233 -0.1658842 0.4443327 
-0.7479853 -0.1656574 0.289011 
0.359146 -0.5104794 0.5169038 
-0.7512609 -0.2107553 0.2936714 
-0.7451977 -0.2724204 0.2919689 
-0.7504621 -0.2850251 0.2750657 
0.28988 -0.3234098 0.5591263 
-0.6606017 -0.2493268 0.3976938 
-0.005463187 0.5864629 -0.1308376 
-0.1397827 -0.8181465 0.2165727 
-0.5559276 -0.7602219 0.1250585 
0.4609515 -0.6027405 0.4354267 
0.2701986 -0.7075255 -0.2228257 
0.7824785 -0.513089 0.2009425 
-0.5694494 -0.7977261 0.1352943 
-0.1799468 -0.6949068 -0.172899 
-0.2339953 -0.8366583 0.2109375 
0.3405695 -0.8380169 0.2488837 
-0.1492624 -0.8495551 -0.2493819 
-0.5782856 -0.8207153 0.1378972 
0.3827943 -0.7701086 -0.0621809 
-0.2138817 0.4959514 0.02297509 
0.3401098 -0.5148278 0.5282018 
0.4949245 -0.7509236 0.3223374 
-0.6300929 0.340651 0.4481159 
0.3845482 -0.8011027 -0.01374756 
-0.1952606 -0.2267962 -0.199591 
-0.2538199 -0.4378048 -0.1368608 
-0.1754125 0.5128303 -0.006246282 
-0.8140761 0.167251 0.2197361 
-0.5265869 -0.7845909 0.4058428 
-0.8203197 0.1492231 0.2215859 
-0.2371341 -0.4195199 -0.1432522 
-0.5553756 -0.3528535 -0.1351836 
-0.7665287 -0.2356653 0.2651826 
0.7822381 -0.498605 0.1653698 
-0.7899405 -0.02242148 0.1824196 
0.7812546 -0.4968489 0.1870631 
-0.3116094 0.346314 0.09617667 
-0.6666171 -0.1115129 -0.03615346 
-0.7569575 -0.1902794 0.2813788 
-0.7562015 -0.2337044 0.2852639 
0.2666397 -0.3030269 0.5756314 
-0.7583569 -0.2590005 0.2754798 
-0.3899278 -0.6889778 0.1712911 
0.5748277 -0.497425 -0.04269512 
-0.2600676 -0.4628617 -0.129471 
-0.2129962 -0.713896 -0.1956982 
0.4075635 -0.723089 -0.1248267 
-0.00676883 -0.8326509 0.5323683 
-0.6326733 -0.296942 0.4204837 
0.3730345 -0.1746611 0.493389 
-0.2647484 -0.4850439 -0.1209147 
-0.8138324 0.0380309 0.4187843 
0.3381089 -0.197727 0.5042537 
-0.6204789 -0.1772699 0.4183073 
-0.5261644 0.2817945 -0.0472785 
-0.5898156 0.5109208 -0.1008925 
0.5778047 -0.4734608 -0.04537766 
-0.646132 -0.173491 0.3973111 
0.4074429 -0.02620911 0.3879518 
-0.276594 0.6063145 -0.005359823 
-0.5019503 -0.8447244 0.2039533 
0.7561737 -0.6565866 0.1540673 
0.5730859 -0.517648 0.3390535 
0.5639842 -0.5266117 0.3587275 
-0.5305117 -0.8147503 0.3071781 
0.2255165 -0.8402821 0.193147 
0.3472155 -0.6357346 0.5049033 
0.5694735 -0.5364763 0.3424079 
-0.3479572 -0.8469121 -0.09412459 
0.2664406 -0.8254064 0.4747296 
-0.6592127 -0.2831679 0.4020904 
0.4446138 -0.1365368 0.4302855 
0.04349717 -0.687593 0.5259279 
-0.6632314 -0.3030897 0.3958095 
-0.214475 0.5326142 0.01197327 
-0.6690648 -0.2275167 0.3849287 
-0.7660559 0.05189881 0.5000596 
-0.02719952 0.5646397 -0.1067025 
-0.8043697 -0.00574971 0.1815698 
0.1388662 -0.7967722 0.03474222 
-0.2010834 0.5805607 0.01876863 
-0.5336108 0.1590633 -0.05025836 
-0.2438667 -0.402698 -0.1472784 
-0.5792667 -0.784821 0.1199939 
-0.7292647 -0.3338138 0.2646412 
0.5756735 -0.1026123 0.1859856 
0.5802838 -0.1175115 0.1993305 
-0.5865821 -0.803199 0.1236827 
0.273781 -0.3392655 0.5686741 
-0.6463239 -0.2540987 0.4131322 
0.2751635 -0.3182094 0.5694403 
-0.5214812 -0.8126573 0.2891552 
-0.05853344 -0.8252604 0.5573309 
-0.5786701 0.3256138 -0.1865521 
-0.8001147 0.2754567 0.2165941 
0.4730853 -0.3551465 0.4637415 
-0.7149197 0.02366815 0.01588266 
-0.06270809 -0.195687 0.4983095 
0.5324329 -0.5490509 -0.08422469 
-0.360617 -0.3005626 -0.1775403 
-0.2487943 0.4587972 0.07065822 
0.3090838 -0.5088523 0.5500829 
0.7037675 -0.5828105 0.3219133 
-0.2965149 -0.5354058 -0.1008465 
-0.8272749 0.06675327 0.2006664 
0.6885808 -0.523262 0.3145403 
-0.2947925 -0.8509644 -0.2022092 
-0.8245116 0.0544382 0.1872556 
-0.7575427 0.1580857 0.4901918 
0.3137363 -0.5323759 0.5406033 
0.343107 -0.384356 0.5554014 
-0.6266514 -0.1002515 0.3952826 
0.2698838 -0.7471904 0.4769107 
-0.7930089 0.3477535 0.1795237 
0.4012972 -0.8024818 0.3617875 
-0.7072093 0.3337485 0.4140816 
-0.6471705 -0.1915531 0.4001823 
-0.6557574 -0.2070775 0.3946967 
-0.3200159 -0.8322315 -0.1782136 
0.445148 -0.6961251 -0.1156821 
0.3652594 0.05408569 0.3609861 
-0.02438499 0.6985657 -0.1520209 
-0.0343051 0.7139433 -0.1395396 
-0.2736526 -0.8523859 -0.215794 
-0.5843343 -0.7767198 0.1005645 
-0.0377907 0.6915767 -0.1375403 
-0.5904412 -0.7907966 0.1097282 
-0.7940854 0.3130392 0.2915111 
0.5581233 -0.569721 0.3475715 
0.5610056 -0.5492263 0.3537366 
0.4282024 -0.5566405 -0.1876013 
-0.4933165 0.4955376 -0.2627667 
-0.03620355 0.51041 -0.05226566 
-0.611017 -0.1610103 0.4188157 
0.3945378 -0.6476759 0.4589821 
0.4144539 -0.7263408 -0.1049985 
0.3739872 -0.6713309 0.4559781 
0.4683996 -0.2472394 0.4606723 
0.07801226 -0.8011599 0.2603504 
0.1570834 -0.717226 0.5121267 
0.1888483 -0.8037311 0.4902133 
0.08710182 -0.8001676 0.2794684 
-0.2402551 -0.2144852 -0.1921528 
-0.4959924 0.5445433 -0.4330584 
0.5699875 -0.4607108 -0.05991777 
-0.7484847 0.2404707 0.4598594 
-0.7429969 0.2264951 0.4771392 
-0.4942141 0.3946408 -0.2139159 
0.2509746 -0.822974 -0.1875637 
-0.4668483 -0.409386 -0.1430658 
0.03373751 -0.175775 -0.2366085 
-0.7575953 0.1833319 0.4799507 
0.2721072 -0.03645562 -0.1483874 
0.6926213 -0.7058559 0.2565481 
-0.4880497 0.4726406 -0.2581913 
-0.5369237 -0.7315958 0.06815207 
-0.6431283 -0.3898306 -0.05015361 
-0.5979104 -0.4135704 0.3952534 
-0.2561396 -0.3669197 -0.1586032 
-0.5983952 -0.8086393 0.1069942 
-0.1470252 -0.8027298 0.3505992 
-0.1420668 -0.802414 0.388846 
-0.2961628 -0.844988 0.3411226 
-0.2800752 -0.1486177 -0.1740517 
0.2856897 -0.3628544 0.5684165 
-0.549034 -0.7714762 0.01692756 
0.1218623 -0.06427135 -0.1787343 
-0.6296648 -0.2238072 0.4230682 
0.6188259 -0.2760891 0.03076661 
-0.7462912 0.1757178 0.5020474 
0.5908093 -0.7757512 0.06163372 
-0.7460111 0.1522236 0.5104503 
0.2821009 -0.2629279 0.5636157 
-0.08377378 -0.7742425 0.5686235 
0.7793906 -0.588467 0.1339131 
0.4356537 -0.6185961 -0.1628948 
0.5748042 -0.7879406 0.068858 
-0.2008018 -0.1258353 -0.1779537 
-0.1948203 -0.1047021 -0.170892 
0.263878 -0.5585418 0.5573785 
0.2571341 -0.542017 0.5697969 
-0.05675867 0.7265415 -0.1051058 
-0.04708763 0.7076576 -0.1234416 
0.2256412 0.04313252 0.4030912 
0.5168868 -0.1893083 0.3994339 
-0.3927736 -0.6480872 0.159194 
-0.3943107 -0.6705868 0.1603298 
0.7085406 -0.6017343 0.3170358 
-0.6336762 -0.3887281 0.3779798 
0.3982441 -0.7614794 0.4284694 
0.388898 -0.7769377 0.4309013 
0.7327991 -0.640141 0.2740465 
-0.6425334 -0.3977776 0.3618465 
-0.3322524 -0.2588544 -0.1796132 
0.6815082 -0.6848105 0.292505 
0.7333009 -0.6126785 0.2859449 
0.721168 -0.6071681 0.3036963 
-0.3395184 -0.2384658 -0.1774222 
-0.7325282 0.2633521 0.4608549 
0.7325733 -0.5887958 0.2938785 
0.01288542 -0.8158967 -0.2224584 
0.1854294 -0.8427709 -0.1824952 
-0.6415848 -0.1311869 0.3884403 
-0.06235746 -0.2242258 0.5464686 
0.6982725 -0.6361483 0.3133363 
0.6990172 -0.6547392 0.300562 
0.7302827 -0.5667059 0.3016265 
-0.246596 -0.6461239 -0.06956692 
-0.1521851 -0.8243514 0.237371 
0.4347108 -0.3950505 0.4884027 
-0.7435797 0.1975597 0.4944206 
-0.6036482 -0.3894837 0.404421 
-0.7006572 0.1193641 -0.01218101 
-0.5021625 -0.2888995 -0.1515968 
0.265717 -0.682196 0.5215159 
-0.0393887 0.6686463 -0.1344812 
0.04017782 -0.1887159 -0.2658634 
-0.06604256 0.5720025 -0.0932833 
-0.07965279 -0.8040485 0.09933054 
0.04423284 0.665153 -0.2184483 
-0.5750124 -0.7674239 0.08759244 
-0.599101 -0.8121685 0.08598962 
0.2812445 -0.6836672 0.5082056 
-0.2387715 -0.385966 -0.153748 
-0.5925481 -0.7936494 0.09403808 
-0.09655882 -0.1769647 -0.2038672 
-0.3916979 -0.8278218 0.4905799 
-0.5276715 0.6026441 -0.5553551 
-0.5088246 0.6116797 -0.470095 
-0.2287439 -0.6953157 -0.10094 
0.2956866 -0.667455 0.5083099 
0.2854202 -0.3024116 0.5648097 
-0.5641487 0.3622668 -0.3460812 
0.1114032 0.08567469 0.3815712 
0.1379524 -0.7997367 0.05732444 
-0.05112687 0.6843845 -0.1240467 
0.2741517 -0.5746945 0.5470591 
-0.01824218 -0.80366 0.2317282 
-0.1594617 0.5161824 -0.01490121 
-0.2238106 -0.6819422 -0.07896221 
0.274104 -0.5359606 0.5576944 
-0.2770391 -0.8180347 0.4635612 
0.3847514 -0.189895 -0.1774989 
-0.4088661 -0.7024891 0.1637946 
-0.3285534 -0.08528556 -0.1562228 
-0.6003677 -0.3271242 0.4314358 
-0.7156053 0.0301374 0.5176684 
-0.07271988 -0.8006368 -0.1243619 
0.6910365 -0.6911133 0.2761846 
-0.5317751 0.1823372 -0.04707358 
-0.7531533 0.07000667 0.5097609 
-0.1568125 -0.8368386 0.2180781 
-0.2548405 -0.664417 -0.07096574 
-0.1005002 -0.8028905 0.04218368 
-0.2219643 -0.8434817 0.399114 
0.01931522 -0.1896927 -0.2650965 
0.3049834 -0.8439525 -0.01661968 
-0.2169728 -0.2190793 -0.1960977 
0.3235073 -0.8400406 -0.05899827 
-0.655984 -0.26612 0.4052278 
0.2802441 -0.6650869 0.5227537 
0.4638298 -0.5043309 0.4493912 
-0.4130888 -0.8535527 0.09535593 
-0.6331282 -0.3374499 0.4073444 
0.3104129 -0.8440464 0.01829128 
0.5358446 -0.3105969 0.4016824 
0.5235271 -0.3200087 0.4164613 
0.3684242 -0.1908783 -0.1843097 
-0.05438454 -0.1634762 0.4739819 
-0.2221545 -0.1961195 -0.190494 
0.7107608 -0.6547939 0.03547454 
-0.7505317 0.2073893 0.4786861 
-0.2315986 -0.3679854 -0.1638565 
-0.2390945 0.5559412 -0.09262224 
-0.1449653 -0.4131543 0.4524734 
-0.3879966 -0.6198357 0.3059395 
0.2948659 -0.6480677 0.5206854 
0.2652435 -0.7016903 0.5067416 
-0.592799 0.3994348 -0.3927102 
0.4152302 -0.572249 -0.1998663 
-0.09159137 0.4730241 0.01163821 
0.5721202 -0.4241017 0.3548003 
0.4056501 -0.5949224 -0.2069992 
-0.5897169 -0.796081 0.07516053 
-0.5118728 0.1939791 -0.04202117 
-0.02832229 -0.1521306 -0.1996239 
-0.6199058 -0.243729 0.4321782 
-0.3597477 -0.7151208 -0.054807 
-0.6301917 -0.2610143 0.4256342 
0.2258273 -0.8424486 -0.1748646 
-0.1588311 -0.2542358 -0.221305 
-0.148865 -0.2338774 -0.2168546 
-0.7431499 0.1283172 0.514465 
-0.7324554 0.1694779 0.5207306 
-0.7318815 0.1911158 0.511274 
-0.04736825 0.4584479 -0.04536516 
-0.5838965 -0.3848521 0.4186286 
0.3471531 -0.8009925 0.4547465 
0.3746792 -0.7984841 0.4329105 
0.3596511 -0.7901283 0.4509266 
-0.2417137 -0.3498498 -0.1708522 
-0.3125305 -0.8435681 0.3562949 
0.3103327 -0.6515365 0.5071028 
0.3074399 -0.6350908 0.5169644 
-0.01073214 0.4937391 -0.1096528 
-0.1081077 -0.513457 -0.2938599 
-0.1528068 0.6511554 -0.120203 
0.06630591 -0.7820711 0.5213986 
-0.2539939 -0.8335468 0.1554201 
0.03810205 0.6504405 -0.1991592 
0.0522221 0.6423385 -0.2166008 
0.4714988 -0.3824825 0.4660943 
-0.6428653 0.3112375 0.4743768 
-0.7138885 0.008919358 0.5100423 
-0.7332211 0.02036433 0.5106596 
0.2699437 -0.1478588 -0.1827476 
-0.6475064 -0.29974 0.4098859 
0.2550135 -0.1318056 -0.1716919 
-0.3070226 -0.5592583 0.4277808 
0.7785011 -0.5070514 0.1313992 
-0.3131084 0.3332556 0.08160082 
-0.6967834 0.2973736 0.4600189 
-0.3542017 0.5328035 0.06122343 
-0.5035602 -0.5519298 0.004606042 
-0.7547867 0.1138324 0.5020773 
0.6301866 -0.3000461 0.1414195 
0.5958794 -0.2454646 0.2980742 
0.2966676 -0.6267129 0.5286987 
-0.2472735 -0.6085749 -0.07341368 
0.6105635 -0.252488 0.2653329 
0.6168825 -0.6943731 0.3395405 
-0.7545463 0.09208763 0.5062999 
0.6186065 -0.6759095 0.3491957 
0.3068669 -0.5638825 0.5322847 
-0.05956251 -0.1076466 -0.1884694 
-0.7395335 0.2144925 0.4887248 
0.4433787 -0.7884188 0.003469344 
0.3319907 -0.6569359 0.4954827 
0.3243151 -0.6342209 0.509675 
-0.04534815 0.5411536 -0.08141015 
-0.04664344 0.5592656 -0.09472583 
-0.6167022 -0.3527686 0.4126997 
-0.601114 -0.3688161 0.416265 
-0.580938 -0.238762 -0.1227345 
0.3006086 -0.6037009 0.5306926 
0.3110126 -0.3285734 0.5514281 
-0.6375062 0.4864816 -0.2630129 
-0.5445984 0.444611 -0.4968721 
0.6057014 -0.7092685 0.3350825 
-0.5591369 0.4598417 -0.4937462 
0.5930942 -0.7254775 0.3265569 
-0.5787324 -0.7798386 0.04818245 
-0.5996441 0.2399199 -0.03478662 
-0.2966461 -0.5062819 -0.1149244 
-0.5004109 -0.1217613 -0.1392076 
-0.3589302 -0.6925755 -0.05134537 
-0.5876075 -0.7954625 0.05496553 
0.5870278 -0.2085398 0.3023581 
0.2409494 -0.8452801 -0.1615842 
-0.06344084 -0.4589661 0.551415 
-0.5415924 0.5979089 -0.5373989 
0.07952341 -0.06055692 -0.18345 
0.1462285 -0.8056079 0.2423727 
-0.7643263 0.2852471 0.3966492 
-0.1704897 -0.2374833 -0.2049792 
-0.4984214 -0.8063561 0.2123716 
-0.08873734 -0.283154 -0.3269677 
-0.2367982 -0.6274408 -0.07018121 
-0.2238875 -0.3156357 -0.1879049 
-0.4040696 -0.6041538 0.2352068 
-0.3537686 0.4099245 -0.02021176 
-0.3766601 0.4303996 -0.0119093 
-0.3715827 0.4127397 -0.01252934 
-0.6092606 0.1805771 0.5415742 
-0.6032897 0.5038493 -0.0922848 
0.06294771 -0.7172481 0.507543 
-0.5431787 -0.4132457 -0.1198426 
-0.2896083 -0.7065022 -0.07797597 
-0.5205569 0.04192321 -0.05260892 
-0.4040923 -0.521883 0.3774806 
-0.7507947 0.03359186 0.5067845 
0.293409 0.06915231 0.3731828 
-0.05415208 0.4717733 -0.01491471 
-0.3904523 -0.747489 -0.05406925 
0.4013773 -0.7417281 -0.0902134 
0.3956119 -0.7369521 -0.1131238 
0.30335 -0.5813425 0.5298253 
-0.7490197 0.05161158 0.5117126 
-0.7346674 0.04142137 0.5166461 
-0.632772 -0.3158471 0.4151906 
-0.1358272 -0.2292475 -0.2274655 
-0.4956176 -0.8218724 0.2264795 
0.4753217 -0.3325131 0.4589552 
0.4587055 -0.3401949 0.4683559 
0.417817 -0.6514785 0.4355801 
-0.6306692 -0.3587613 0.3996003 
0.4108683 -0.6403744 0.448849 
-0.6162506 -0.4006532 0.3875055 
0.2666939 -0.475544 0.573458 
0.2533194 -0.4871826 0.5766568 
-0.6238654 -0.3793564 0.393508 
-0.6154032 -0.3699944 0.405523 
-0.3296477 -0.5036307 0.423911 
-0.05329185 -0.80492 0.2049687 
-0.8090513 0.02220955 0.4042914 
-0.04693814 -0.8044842 0.2274511 
-0.6090145 -0.3727435 -0.09579566 
-0.731612 0.245751 0.4759459 
-0.7288543 0.2291936 0.4902256 
-0.1304811 0.4250058 -0.02825654 
0.2783541 -0.6425327 0.5378325 
0.2645628 -0.6244811 0.5524787 
-0.6999094 0.280001 0.4735179 
0.2846318 -0.6145439 0.5428288 
-0.5641228 -0.5522031 0.08700547 
-0.6166626 -0.3318121 0.4201976 
0.5972327 -0.1897669 0.2668775 
0.04398824 -0.08293107 -0.1847829 
0.02446697 -0.07284082 -0.1764229 
-0.6232025 -0.2831712 0.428688 
-0.2488882 -0.802875 0.4623964 
-0.01810036 -0.1306379 -0.1940509 
-0.6059688 -0.1796004 0.4293713 
-0.7174215 0.1852626 0.52623 
-0.5259507 0.6707467 -0.5581021 
-0.7034861 0.1815392 0.5376316 
-0.5431108 0.662643 -0.5524677 
-0.7019126 0.1975972 0.5307118 
-0.09746195 0.6415714 -0.08498314 
-0.1090425 0.6490508 -0.06920263 
-0.6968142 0.2165554 0.523141 
-0.6903787 -0.108375 0.3358739 
-0.1907272 0.5682513 -0.1184161 
-0.7015856 -0.09870875 0.3203718 
-0.2705631 0.4283808 -0.056048 
-0.1317769 -0.3760222 0.5007107 
-0.3161736 -0.8418244 0.3891658 
0.0271859 0.646571 -0.1847561 
-0.129666 -0.232283 -0.2443296 
-0.2811218 -0.3572754 -0.1627545 
-0.7360215 0.06225957 0.5177734 
-0.7196854 0.07449956 0.5207989 
0.01630118 -0.8034242 0.200487 
0.5814195 -0.1874887 0.2998902 
0.4670463 -0.289669 0.4616524 
0.4512258 -0.2830186 0.4702463 
0.4285723 -0.6372368 0.4391063 
0.4428048 -0.6177149 0.4407429 
0.4164572 -0.6032652 0.4657324 
-0.7174321 0.05259242 0.5202574 
0.6303954 -0.3775098 0.234351 
0.2699688 -0.4365898 0.5745962 
0.2498868 -0.8379753 0.2281583 
0.2867873 -0.8366885 0.22658 
0.2131287 -0.0557011 0.4455322 
-0.5391399 -0.8314604 0.3399416 
0.1238178 -0.7907713 0.5049838 
-0.04084133 -0.4887608 0.5592474 
0.6375311 -0.7260674 0.03057772 
0.2742651 -0.3818166 0.5742595 
-0.6561443 -0.07598618 0.3769905 
0.09914812 -0.1835563 -0.2553968 
0.2689999 -0.4155941 0.5772756 
-0.5327771 -0.7942989 0.3361769 
-0.5245804 -0.7783208 0.3452953 
-0.007427196 0.5681461 -0.1177075 
-0.7154353 0.2814763 0.4603886 
-0.7163281 0.2640702 0.4745924 
-0.01102773 -0.7990423 -0.02064713 
0.6262691 -0.3657969 0.249952 
-0.009693192 0.07183369 0.3623604 
0.4485151 -0.6683452 -0.1418779 
0.5020149 -0.6479616 0.3759851 
-0.7785879 0.2928048 0.3346062 
0.4959451 -0.6679119 0.3684595 
-0.7145627 0.1658499 0.5361407 
-0.08999434 -0.1954667 -0.2141644 
-0.5265577 0.6259597 -0.5600654 
-0.3472603 -0.5103244 0.4108737 
0.6279163 -0.2577732 0.1307343 
0.6271222 -0.2628373 0.1478078 
-0.2777773 0.5149069 -0.0742289 
-0.3187937 0.5427628 0.07133187 
-0.6100814 -0.2231829 0.4374031 
0.3352614 -0.2337763 -0.2099457 
0.3264422 -0.2466119 -0.2229983 
0.7296157 -0.6942565 0.1734576 
-0.6875547 0.3485466 0.4128039 
-0.6897959 0.3332025 0.4291658 
-0.3548055 -0.8249691 -0.08748707 
-0.1099531 -0.3160943 0.5536529 
-0.5896812 0.1605737 0.538357 
-0.5949472 0.1743429 0.5363125 
-0.5880373 0.188223 0.5280031 
0.05960488 0.6332833 -0.2316957 
-0.1251439 -0.4825396 -0.2963699 
-0.1707083 -0.8468403 -0.2553201 
0.1478084 -0.8209226 0.4127388 
-0.1112481 -0.4786669 -0.3104824 
0.5031319 -0.6972618 0.3453198 
-0.6043038 -0.2898216 0.4381301 
-0.6676232 0.2454997 0.5184268 
-0.0771668 -0.4172122 0.5566515 
0.2649076 -0.5199866 0.5673328 
-0.3309565 -0.8469734 0.2843038 
-0.7382118 0.08350985 0.5162849 
0.5211548 -0.2553839 0.4223703 
-0.624258 -0.1213412 0.3984675 
-0.6161486 -0.1421852 0.4081144 
-0.155876 0.4123725 0.002055179 
0.438961 -0.3089421 0.4869969 
-0.6397232 -0.2059621 0.4104258 
-0.494686 0.3878582 -0.1798379 
-0.6202968 -0.1990465 0.4253121 
-0.5180995 -0.503696 -0.04128594 
0.6727391 -0.678391 0.3062954 
-0.6485173 -0.2298439 0.4069119 
-0.08436131 0.6290556 -0.09683788 
-0.1097127 0.6304232 -0.07564996 
-0.6352877 -0.2422741 0.4208756 
0.3980879 -0.6760989 -0.1821578 
-0.2531748 0.4938371 -0.08630528 
0.6776312 -0.7328647 0.2241543 
-0.6340477 -0.1849215 0.4097854 
-0.6289962 -0.1620409 0.4060805 
-0.565591 0.01919745 0.5480461 
-0.5765681 0.1498531 0.5359282 
-0.1751066 -0.8222526 0.3917641 
-0.6154371 -0.3077067 0.4277601 
0.7767317 -0.5066066 0.2186663 
-0.2144976 0.5710135 0.0320675 
-0.4900789 0.408335 -0.1855444 
-0.7285848 0.143862 0.5298368 
-0.2926379 0.5174292 -0.06461504 
-0.4676537 0.2531187 -0.02094185 
-0.4785271 0.2662269 -0.01952171 
-0.2107388 -0.5566674 -0.09130546 
-0.1928114 -0.5626699 -0.09941849 
0.6577014 -0.7544773 0.1553419 
-0.5630228 -0.7513177 0.09346245 
-0.3643394 0.3268818 0.1442172 
-0.1047794 -0.8046948 0.1035385 
-0.3476099 -0.5836403 0.3908238 
0.475732 -0.2307758 0.4525401 
-0.340836 -0.6208891 0.3977259 
0.4502092 -0.3014594 0.4721529 
0.4405806 -0.2889183 0.4807636 
0.5769079 -0.1369464 0.2624042 
-0.6387729 0.4186165 0.01539051 
0.2619759 -0.3611612 0.57511 
-0.7067026 0.1402651 -0.00838693 
-0.4956662 0.5305016 -0.4167763 
-0.7405809 0.105461 0.5154129 
0.6067763 -0.3257476 0.2996647 
-0.7279081 0.1178169 0.5278129 
0.5525838 -0.5434442 0.3711437 
-0.2311251 -0.2897841 -0.1938891 
0.03511228 0.5494425 -0.1861411 
-0.6443926 -0.4577103 0.03083464 
-0.1668903 0.4616051 -0.08951092 
0.5989615 -0.3299557 -0.01735184 
0.3723069 -0.09723253 0.4452922 
-0.2289503 -0.808255 -0.2555915 
0.5591804 -0.06693143 0.149383 
-0.5985571 0.3771915 -0.3642674 
-0.3790794 -0.8526666 -0.07457325 
-0.7006702 0.2641902 0.4866012 
-0.5581057 0.04037771 0.5531666 
-0.4992559 0.5512043 -0.4135492 
-0.6880087 0.2772119 0.4847423 
-0.7149286 0.2472117 0.4893206 
-0.5536848 0.06506497 0.5527939 
-0.6974658 0.2494026 0.5006639 
-0.710935 0.2282226 0.5059302 
0.4608787 -0.7946612 0.01376729 
0.5197877 -0.6245995 -0.05028314 
-0.1120802 0.5856265 -0.1523085 
-0.7291238 0.2111983 0.5017843 
-0.4506085 -0.04468433 -0.1290822 
-0.453405 -0.02641989 -0.119782 
-0.5941346 -0.1622995 0.4294189 
0.1471447 -0.7942336 -0.02538834 
-0.7104834 0.1069853 0.5372573 
-0.3263842 0.3312115 0.09629461 
-0.7148857 0.12689 0.5395679 
-0.2565888 -0.7859774 0.4526506 
-0.5870021 0.2474246 0.5068443 
-0.08979045 0.4903013 -0.006813327 
0.5367932 -0.5250817 -0.08791345 
-0.5275816 0.3748226 -0.3079647 
0.5174938 -0.6365269 0.3654809 
-0.3710186 -0.6583133 0.1843736 
0.5268165 -0.5630323 0.3989699 
-0.1293463 -0.8059277 0.1063277 
-0.5627128 0.3469277 -0.2785249 
0.4405247 -0.6911802 0.405875 
-0.5206167 -0.8184958 0.4367167 
0.0009825509 -0.8029616 0.1388067 
-0.06604605 -0.5068849 0.5233948 
0.4764297 -0.4032929 0.4602475 
-0.08528679 -0.4275322 0.5425466 
0.242144 -0.6900859 -0.2389468 
0.2662803 -0.8281686 -0.1801301 
-0.1430106 -0.4482749 -0.2960823 
-0.1343605 -0.6774975 -0.204223 
0.4844533 -0.1797619 0.4249777 
0.3039061 -0.7331886 0.4700101 
-0.1175226 -0.62265 0.4188855 
-0.7233108 0.09605339 0.5239792 
-0.2373769 -0.2709393 -0.1967396 
-0.7043068 0.08639766 0.5293996 
0.2543409 -0.4479363 0.5818219 
-0.6995354 0.06512292 0.5220128 
0.2538496 -0.4676574 0.5793869 
0.2534594 -0.4272189 0.5842974 
-0.2332846 -0.2522448 -0.1980687 
-0.5406437 -0.8150849 0.3726138 
-0.1126136 -0.8350205 0.5485568 
-0.5402568 -0.8094496 0.3507717 
-0.3348101 -0.8284599 0.4787505 
-0.330632 -0.8373894 0.4620842 
-0.1291877 -0.8028791 -0.005988833 
-0.5316545 -0.7917506 0.353153 
-0.5490413 0.02597833 0.5419177 
-0.5275209 -0.7785101 0.3638412 
-0.5352402 -0.7957742 0.3688269 
-0.06781888 -0.4053141 0.5682938 
-0.09033073 -0.801576 0.3318776 
-0.553153 0.0914079 0.5488751 
-0.5563242 0.1154301 0.5410113 
-0.08027943 -0.7997816 0.3517288 
-0.560351 0.1364731 0.5324135 
-0.5602223 0.1548625 0.5211179 
-0.6480333 0.5673211 -0.269155 
-0.09789789 0.5045748 -0.02408591 
-0.5769178 0.1708912 0.5267224 
-0.580501 0.2072905 0.5175456 
-0.5830903 0.2283596 0.5120049 
-0.500886 -0.4542717 -0.1087172 
0.6500468 -0.6664807 0.3333578 
-0.1874475 0.4609123 0.05829771 
-0.431688 -0.6445662 0.1049097 
-0.2261829 -0.3564855 -0.1757833 
-0.6885948 0.2364715 0.5152918 
0.573858 -0.1653343 0.2981317 
-0.2279847 0.463446 0.06290662 
0.5138701 -0.610929 0.3892908 
-0.6308044 0.471832 -0.2459186 
-0.1407775 -0.4316065 -0.3065613 
-0.05399732 -0.5506772 0.5173393 
-0.2342276 0.5459419 0.04668224 
-0.004773578 -0.7982458 -0.04094421 
-0.4576365 -0.8122974 0.4931958 
0.4030697 -0.009556431 0.3787743 
0.5514976 -0.2012089 0.3599047 
0.5564827 -0.1873222 0.3453797 
-0.1097977 -0.240802 0.5093874 
-0.5557398 0.3800214 -0.3966153 
0.4221004 -0.01923517 0.3771838 
-0.6454448 0.4206606 -0.04299505 
0.3370793 -0.6112823 0.5155019 
-0.5532064 0.1250279 -0.05143648 
-0.1291504 -0.8287569 0.5576929 
-0.198028 0.5478652 -0.003721649 
-0.6170276 0.4554793 -0.02316187 
-0.1871901 0.4772388 0.03901148 
-0.1852516 0.5027853 0.005833084 
-0.5791339 0.4265122 -0.4381498 
0.05526755 0.5952479 -0.1854033 
0.4060726 -0.8130408 0.01667638 
-0.4817218 -0.7365644 0.4441265 
-0.5293258 -0.03599997 0.4150088 
-0.06982716 -0.4373854 0.552965 
-0.1920295 0.5232555 -0.003779702 
0.02864631 0.7117417 -0.2234454 
0.56686 -0.1435063 0.2969453 
0.318213 -0.5941676 0.5219907 
0.6010385 -0.2669352 -0.01120031 
-0.2024878 0.4258618 0.05635178 
-0.7507129 -0.08197504 0.167455 
0.5389608 -0.1052266 -0.01595033 
0.09361587 -0.7176879 -0.2536843 
-0.5123423 -0.7969631 0.4411195 
-0.1324155 -0.3533635 0.5140333 
-0.08392521 -0.558949 0.47005 
0.5380485 -0.1024677 0.3191348 
-0.5239668 0.4296309 -0.4339663 
0.7701027 -0.4894144 0.2200751 
-0.6847371 0.265446 0.4966453 
-0.5982932 -0.3093036 0.4370534 
0.0221622 -0.8037261 0.2188358 
0.7643794 -0.4725803 0.2099658 
-0.09651009 -0.3445728 0.5742832 
0.4020556 -0.6611497 0.4411018 
-0.635528 0.4008808 -0.110478 
0.1292716 -0.7991737 0.2788825 
-0.4948916 -0.7122476 0.08618918 
-0.02672108 -0.176866 0.4949359 
0.1500537 -0.8329267 0.424753 
-0.2302542 -0.2331797 -0.1966354 
-0.251055 0.5349104 -0.0882486 
-0.07039585 -0.4716859 0.5378171 
-0.06271035 -0.4932634 0.5375679 
-0.07142783 -0.6110514 0.4844945 
-0.1974371 -0.679943 0.4180097 
-0.5540498 0.007447049 0.5329389 
-0.5373818 0.02099853 0.5272301 
-0.2102175 -0.6972733 0.4275638 
-0.5365837 0.04554544 0.5397221 
-0.07741666 -0.4493178 0.5389752 
-0.5351276 0.07509933 0.5385028 
-0.5361143 0.1019857 0.5304672 
-0.3776694 -0.6548983 0.3556945 
-0.5435438 0.1255094 0.5249071 
-0.3807047 -0.6406265 0.3408135 
-0.3792478 -0.6178781 0.3404232 
-0.3796549 -0.5709091 0.3476075 
0.5322403 -0.6241988 0.3554245 
-0.5675077 0.1893312 0.5122318 
-0.2702823 0.4943878 -0.07776661 
0.2891661 0.1050767 -0.02262274 
-0.571702 0.2384454 0.5007644 
-0.5701059 0.2572093 0.493363 
-0.2139092 -0.7652476 0.4921743 
-0.05062601 -0.4978053 0.5488252 
-0.2406874 -0.8449031 0.3150618 
-0.2758712 -0.255428 -0.1897739 
0.4795305 -0.1473863 0.4086482 
-0.4109317 -0.6143783 0.1751593 
-0.0676591 0.6743746 -0.1797766 
0.6261606 -0.2709426 0.167383 
-0.5658597 -0.3034659 -0.134146 
-0.5469651 -0.3107496 -0.1422491 
0.5365196 -0.3816844 0.4038642 
-0.2264598 0.5624871 0.04298133 
-0.4431321 -0.1066143 -0.1458006 
0.5633456 -0.2070441 0.3448827 
-0.1472672 0.571304 -0.1367197 
-0.6118385 -0.5037702 0.05026044 
0.5891864 -0.3071143 0.3283453 
0.5867769 -0.3312344 0.3349421 
0.5127596 -0.3597724 0.4326138 
-0.509515 -0.3594476 -0.1483667 
-0.4218926 -0.8043023 -0.06882685 
0.3652853 -0.8007355 -0.05953893 
-0.4024241 -0.8020297 -0.07486159 
0.4560134 -0.3833385 -0.1778333 
0.2914761 -0.5679169 0.5372772 
0.4283457 -0.8377909 0.08133339 
0.221854 -0.2424675 -0.280035 
0.6291659 -0.353867 0.2313884 
0.02924858 -0.7995898 -0.1115064 
-0.3957879 -0.6018428 0.2594194 
-0.205608 0.5080967 0.0114132 
-0.3900711 -0.7211673 0.2013942 
-0.3466265 0.3085324 0.07772107 
-0.06236093 -0.7987902 -0.105168 
0.4340147 -0.6017752 0.4557442 
-0.7773277 0.2146117 0.3367336 
0.55285 -0.595829 -0.02291217 
-0.5034186 -0.7606136 0.4309297 
-0.4789869 -0.7511961 0.4599798 
-0.1919453 0.5721665 -0.0002696775 
-0.06712344 -0.2133975 0.5289158 
-0.5613838 0.3384029 -0.2415772 
-0.7758626 0.3654436 0.2784515 
-0.08683241 -0.477185 0.5090806 
-0.4023723 -0.5606022 -0.0501477 
-0.45969 -0.1012174 -0.1429232 
0.277497 -0.8401336 0.3803518 
0.3282019 -0.4971949 0.5395411 
-0.4097322 -0.6569343 -0.01575247 
-0.4179695 -0.3344478 -0.1753915 
0.3200479 -0.4548641 0.5508299 
-0.5691459 0.3289177 -0.2064923 
-0.550189 -0.2876347 -0.1381117 
-0.1700276 -0.1811851 -0.1924143 
-0.1436525 -0.382671 -0.3120691 
-0.7324367 -0.380409 0.1659826 
-0.5495868 -0.01444713 0.4981668 
-0.3922678 -0.6045079 0.2764837 
-0.5813752 -0.02776433 0.5056242 
-0.3920298 -0.6006939 0.2935119 
-0.2476442 0.4179866 -0.05365213 
0.5851516 -0.601168 -0.01474016 
-0.3894875 -0.6187308 0.2847071 
-0.1897211 -0.7514532 0.516643 
-0.6680967 0.5455747 -0.2917501 
0.3241557 -0.5172734 0.5372903 
-0.4964788 -0.1697733 -0.1404484 
-0.5282696 0.1176684 0.5132832 
-0.4975343 -0.1468649 -0.14271 
-0.5492072 0.1423524 0.5191216 
-0.6801317 0.009179991 0.5121735 
-0.557493 0.1721511 0.5090277 
-0.05492505 -0.2001171 0.5190848 
-0.1258829 -0.4880329 0.4370549 
-0.5650714 0.2219353 0.5003809 
-0.1066823 -0.5439615 0.4429746 
-0.3205436 0.3254856 0.04520811 
-0.1062072 -0.4914307 0.4685806 
-0.4493685 -0.5961578 0.07182268 
-0.5083795 0.4532557 -0.4045772 
-0.5276075 -0.8518318 -0.02565299 
-0.2153305 -0.1114258 -0.1689019 
-0.779067 0.01955233 0.4771814 
0.5362484 -0.4012276 0.4051434 
-0.6795036 0.0536981 0.5276956 
0.5788585 -0.2990195 0.3464249 
-0.662647 0.04186691 0.5394123 
-0.4984076 -0.2273331 -0.1492877 
-0.6492975 0.4216847 -0.08071688 
0.5625264 -0.2512925 0.3619447 
-0.1857769 0.5593562 -0.01465948 
-0.07311827 -0.7991059 -0.08924633 
-0.0003411416 0.5059881 -0.1252024 
-0.7651381 -0.03671626 0.1418559 
0.7205035 -0.6660457 0.2668545 
-0.227236 -0.7842751 0.4850904 
-0.3552401 -0.5567368 0.3846335 
-0.04219052 -0.5638041 0.5307049 
-0.6466808 0.441516 -0.07075638 
0.5975654 -0.4332295 0.3125004 
0.5934625 -0.410446 0.319565 
-0.1057984 -0.359459 0.5615887 
-0.2452143 -0.8336684 0.4561492 
-0.6008614 -0.3484145 0.4247246 
-0.07931171 -0.5184966 0.4944612 
-0.197013 -0.8160992 0.5227606 
0.1256212 -0.7713179 0.5036978 
0.6017581 -0.6919414 0.3493054 
0.1155231 -0.8045486 0.1294667 
0.3596584 -0.8197916 0.4226625 
0.5831702 -0.5092782 0.3207315 
0.5682043 -0.1141924 0.2655599 
0.5997426 -0.4534239 0.3047063 
0.7120906 -0.6572133 0.2844188 
0.3481438 -0.7737659 -0.1635666 
0.5927688 -0.4731499 0.3129636 
-0.1175768 0.6332784 -0.1509273 
0.603236 -0.470426 0.295377 
-0.4537482 0.2120364 0.3838995 
-0.1476889 -0.3107691 0.4849899 
0.5072379 -0.2395682 0.4321229 
-0.4454542 -0.7624218 0.2124851 
-0.7307815 0.3660604 0.3487318 
-0.566394 0.4598066 -0.4750684 
0.6318394 -0.3675121 0.2156294 
0.02842874 -0.8011582 0.2923424 
-0.6430506 -0.2776656 0.4164997 
0.5517897 -0.07632767 0.259332 
0.3821524 -0.08786542 0.4301121 
0.4479065 -0.7076569 -0.07371815 
-0.3876469 -0.6190498 0.2474189 
-0.5654996 -0.02460306 0.4983739 
-0.5279223 0.01513622 0.5083635 
-0.388649 -0.6183538 0.2669526 
-0.5215378 0.06023262 0.5234485 
-0.5968841 -0.8150792 0.06444288 
-0.5225083 0.08357267 0.5211455 
-0.5993633 0.3282152 -0.1587451 
-0.5226759 0.1007739 0.5148968 
-0.5844606 -0.3427849 0.4357044 
-0.5353891 0.1371659 0.5084579 
-0.1015909 -0.806303 0.1422394 
-0.5459526 0.1553505 0.50651 
-0.2464195 0.4586789 -0.07781723 
-0.5537277 0.1856616 0.498492 
-0.5586221 0.2025243 0.4987374 
-0.06207392 -0.8518106 -0.1831126 
-0.4013897 0.2842817 0.2918516 
-0.4615006 -0.7853466 0.4868758 
-0.5598888 0.4408493 -0.4834391 
-0.5628836 0.276032 0.4802221 
-0.4759217 -0.8084753 0.4821172 
-0.2211962 0.5498538 0.03021575 
-0.6400963 0.4707907 -0.2281135 
-0.2311122 0.5296081 0.03189388 
-0.2109743 -0.7686651 -0.2522195 
-0.1328761 -0.4157598 0.4714473 
-0.2529522 -0.7538897 0.4461411 
0.3249367 -0.4292956 0.5516306 
0.3055281 -0.4384739 0.5617774 
-0.4497336 -0.5723395 0.01689602 
-0.4339494 -0.5889803 0.01476935 
0.5597712 -0.3084484 0.374699 
-0.1910072 -0.7730274 0.5289732 
-0.1178925 -0.4773816 0.4557365 
-0.01178557 -0.165996 0.4842315 
0.5939959 -0.2865935 0.3139084 
-0.2377088 -0.7176708 0.4324075 
-0.1998791 -0.7488901 0.4997382 
-0.3181316 0.05402449 0.3148785 
0.6050733 -0.7819561 0.1711438 
-0.2246961 0.5107315 0.02174995 
0.7452955 -0.5914446 0.2761087 
-0.05113617 -0.5155728 0.5385825 
0.01447663 -0.7968203 -0.09660858 
0.5893499 -0.2626871 0.3149575 
0.559632 -0.2255224 0.3588403 
-0.2193694 0.6208172 -0.08165096 
-0.4975489 0.3801209 0.02374955 
-0.4017248 -0.5859733 0.2780566 
0.5274131 -0.06447739 0.3051044 
-0.6270374 -0.4731025 0.02953927 
-0.2285399 0.4932585 0.03214373 
-0.2359499 -0.8038999 0.4773118 
0.5255571 -0.07838635 0.3183917 
-0.1089219 -0.3375617 0.5596055 
0.5420017 -0.1228726 0.326132 
-0.09293157 -0.4068474 0.5487025 
0.586636 -0.3690658 0.3339375 
0.589358 -0.3886155 0.3265921 
-0.1868323 -0.7006605 0.4625589 
0.600709 -0.3879888 0.3068176 
-0.62619 -0.4097018 0.3715164 
0.5920315 -0.3493137 0.3253567 
-0.3163638 0.575788 0.01606206 
0.6495653 -0.7091371 0.3006494 
-0.5849745 -0.3214971 0.4413189 
0.2927226 -0.7997204 0.4746253 
-0.5705487 -0.3129805 0.4518591 
0.303172 -0.7795456 0.4748723 
-0.1194813 -0.2618711 0.5130761 
-0.5336311 -0.001229476 0.4963017 
-0.1079911 -0.5223302 0.4482072 
0.582827 -0.2950505 -0.05826664 
0.6579781 -0.7275689 0.2685754 
-0.03010734 -0.5531669 0.544549 
-0.5229276 0.01047343 0.493215 
-0.6425723 0.5008432 -0.1377297 
-0.1116836 -0.2284584 0.4920293 
-0.513872 -0.2073786 -0.1434125 
-0.1421542 -0.3538751 0.4929557 
-0.01783547 0.03747438 -0.09697132 
-0.2612979 0.5143399 -0.08346622 
-0.5156632 0.1090564 0.5006171 
-0.1250678 -0.3438938 -0.3269301 
-0.2103494 -0.742407 0.4826908 
-0.6462705 0.5063994 -0.1582735 
-0.5432411 0.1714363 0.4922977 
-0.1869845 -0.6743583 -0.09448503 
-0.003229 0.04846182 -0.08551385 
-0.2075279 0.4709588 0.0537865 
-0.5576565 0.2375853 0.4889134 
-0.3333532 -0.00797078 0.373959 
-0.5518838 0.2553888 0.4778371 
-0.5451116 0.2740279 0.4659823 
-0.4396954 0.1952382 0.3870814 
-0.5590689 0.2989289 0.4668812 
-0.6553438 0.5213656 -0.2129534 
-0.6103492 -0.1450624 -0.09081465 
-0.6520779 0.4880834 -0.1506543 
0.573047 -0.3545891 0.3593027 
-0.1487533 -0.6806889 0.4626709 
0.5859019 -0.2397453 0.315933 
-0.0861029 -0.8154684 0.4422437 
-0.2084174 -0.7113484 0.4491082 
-0.2281328 0.4783951 0.04628376 
-0.4515855 -0.5698214 0.2707404 
-0.4377892 -0.563517 0.2905885 
0.5688276 -0.5032097 0.3533163 
-0.06377269 -0.6010668 0.4958968 
-0.1901541 0.5902972 0.008872768 
-0.2037674 -0.7688136 0.5109119 
-0.2589337 0.5566609 -0.0801325 
0.7230426 -0.5449048 0.3066205 
-0.1514138 -0.3558221 0.4731843 
-0.4527745 -0.6954429 0.04278616 
0.5988717 -0.2717872 0.2991241 
0.1858583 -0.8325064 -0.1133937 
0.525413 -0.3899774 -0.1093491 
0.5280064 -0.5785828 0.3909688 
0.5165808 -0.5935107 0.3974 
0.5574264 -0.7983079 0.07628711 
-0.153184 -0.3754224 0.4614216 
0.535715 -0.5225709 0.3991202 
0.5222482 -0.5324257 0.4126683 
0.5312609 -0.5448085 0.3995159 
0.1880453 -0.2232564 -0.2797612 
-0.1427443 -0.3755146 0.4808411 
-0.1437399 -0.3951182 0.4674034 
-0.03627826 -0.5089934 0.5539573 
0.5262799 -0.5081962 0.4101344 
0.5295264 -0.483957 0.4045283 
0.5143752 -0.4928628 0.4179713 
-0.231805 -0.0784855 -0.161088 
0.05134383 -0.7965306 -0.05631258 
0.5394156 -0.1368877 0.3378587 
0.2630395 -0.8457412 -0.1309281 
-0.06931716 -0.5181 0.510389 
-0.3375621 0.5326485 0.07384891 
0.5497161 -0.155113 0.3342749 
-0.3995297 -0.6486886 -0.02676691 
0.5496044 -0.1704302 0.3446227 
-0.07395235 -0.5457829 0.4880054 
0.5613123 -0.3609197 0.3758141 
-0.6403254 0.5975164 -0.3235013 
-0.1249399 0.6728528 -0.1315301 
-0.572144 -0.258253 -0.1266664 
-0.2431941 -0.1898159 -0.1853052 
0.6898499 -0.7265244 0.1273247 
-0.5260373 0.000426352 0.4831494 
-0.497837 -0.8302706 0.4593026 
-0.08325551 -0.2765257 0.5656548 
-0.6973282 0.04185222 0.5195035 
0.2935158 -0.1439085 -0.1846809 
-0.5540814 -0.2802295 0.4647315 
-0.5123406 0.07126167 0.5077784 
-0.5294999 -0.8102721 -0.03317835 
-0.513643 0.09039035 0.5051503 
-0.7028362 -0.01691512 0.02753487 
-0.07176948 -0.5913785 0.4854325 
-0.5293388 0.1517242 0.4886128 
-0.1756359 -0.2650266 -0.2110132 
-0.1167925 -0.8030244 0.02766374 
-0.5431221 0.1934316 0.4815673 
-0.1200026 -0.3991044 0.5054731 
-0.5502368 0.2171902 0.4849647 
-0.4895326 -0.7712975 0.4605619 
-0.5443961 0.2347432 0.4732763 
-0.570551 -0.2894487 0.4547619 
-0.1445428 -0.6936306 -0.2014292 
0.2371978 -0.1938322 0.5344888 
-0.5385457 0.616623 -0.546443 
-0.07914101 -0.3508576 0.5847139 
0.3495992 -0.3644195 0.5499648 
-0.115954 0.7032953 -0.1115708 
-0.7410601 -0.02965329 0.3423128 
0.5631529 -0.4161245 0.367017 
-0.09870648 -0.3224134 0.5702087 
-0.1533094 -0.6724367 0.4430636 
-0.05768778 0.6462871 -0.1176876 
0.5648413 -0.2735758 0.362674 
-0.06772296 0.6597111 -0.1100332 
0.5723849 -0.4817913 0.3479725 
0.7309157 -0.5265064 0.295907 
-0.1645771 -0.6972455 0.4722149 
