ply
format ascii 1.0
element vertex 1307
property float x
property float y
property float z
end_header
-0.228365 -0.446181 0.420977
-0.162292 0.776737 -0.200861
-0.230899 0.696193 -0.415496
0.153584 -0.625261 0.914716
-0.0490439 -0.0525287 1.02501
0.140844 0.802002 -0.341998
0.119478 -0.295776 -0.113872
0.282577 0.535883 -0.259681
0.141818 0.921807 -0.235425
0.21819 0.281995 -0.133552
-0.164015 0.929339 -0.232094
0.194944 0.134806 -0.523346
0.101303 0.147713 0.844481
0.0541294 -0.000582154 0.980957
-0.138821 0.452917 -0.589054
-0.233098 0.21084 -0.267301
-0.249966 0.723503 -0.332259
0.249809 0.379204 -0.0978893
-0.105997 0.402715 0.0360884
-0.136018 0.925025 -0.266007
0.0501277 -0.274014 0.941915
-0.046641 -0.500432 0.308431
0.298509 0.427522 -0.236282
-0.0467382 0.325284 0.136739
0 -0.0724905 1.00177
-0.238161 -0.677382 -0.0918856
0.382458 -0.25968 0.176197
-0.0369868 0.226526 0.54726
-0.0816243 -0.264189 -0.144485
0.341862 -0.313907 0.657949
0.357964 -0.0317511 0.0731655
-0.065741 -0.440111 0.119726
-0.244434 -0.716483 0.736358
0.304296 -0.0566442 0.818942
0.32282 -0.565952 0.726198
-0.137484 0.129002 -0.534091
0.350887 -0.0507559 0.502911
0.320467 -0.390454 0.538527
-0.18859 0.771476 -0.215131
0.165819 0.804418 -0.335288
0.328019 -0.223318 0.773747
-0.122462 -0.037914 0.969963
0.138821 0.452917 -0.589054
0.283052 -0.132631 0.863571
0.354445 -0.427851 -0.0878125
0.114009 -0.358339 -0.0759521
0.216862 0.918936 -0.303965
0.057123 -0.235922 0.956621
0.359143 -0.0454376 0.384517
-0.230899 0.696193 -0.415496
0 0.80352 -0.16013
0 0.20702 0.762635
0.106971 -0.518553 0.416032
-0.0766662 0.0457919 -0.217551
-0.300703 0.102007 0.305644
-0.320467 -0.390454 0.538527
0.190344 0.780419 -0.305321
-0.149393 0.222637 0.439843
-0.153343 -0.652512 -0.0628489
-0.0803711 0.0844567 -0.225271
-0.240757 -0.435635 0.421981
-0.065189 0.10952 -0.494143
0.232047 0.565216 -0.501918
-0.223444 0.760451 -0.217689
-0.32282 -0.565952 0.726198
0.342419 -0.00261151 0.390867
-0.268509 -0.018423 0.854481
-0.050202 -0.275405 -0.142323
-0.106456 0.208743 0.651454
-0.150018 0.148066 -0.170355
-0.0470212 0.120443 -0.299626
-0.313132 -0.399051 0.881192
0.095203 0.828981 -0.232883
0 -0.0756163 0.995507
0.142559 -0.466669 0.57469
-0.20189 0.765574 -0.22074
0.0529288 -0.526727 0.468796
-0.0705006 0.811753 -0.205807
-0.363531 -0.0923241 0.440867
0.172619 0.221245 -0.0722104
-0.113033 -0.684171 0.844965
0.185308 0.513743 -0.0172354
-0.354445 -0.427851 -0.0878125
0.383244 -0.532332 0.0297109
0.309753 -0.137557 0.821642
0.385185 -0.214712 0.178025
-0.143329 0.804627 -0.337252
-0.385825 -0.174501 0.180766
0.209392 -0.47177 0.928314
0.050202 -0.275405 -0.142323
0.179633 -0.708233 -0.0350267
0.0858416 0.32349 0.0605597
-0.360332 -0.277544 0.491251
0.12906 -0.497175 0.517019
0 0.0636729 0.946137
-0.105997 0.402715 0.0360884
-0.101319 -0.442167 0.150389
0.138282 0.375681 -0.645424
0.0337403 0.129119 0.889852
-0.0858416 0.32349 0.0605597
0.320738 -0.0133772 0.724898
-0.0717681 -0.0690106 0.994894
-0.199751 0.790382 -0.244881
0.387436 -0.440321 0.0296682
-0.452589 0.744444 -0.206816
0.347363 0.598425 -0.244565
-0.149393 0.222637 0.439843
-0.275748 0.0634772 0.725933
-0.199751 0.790382 -0.244881
0 -0.0952192 1.02642
0.144743 -0.495777 0.363499
0.114552 -0.619641 -0.0267392
-0.240714 0.760641 -0.229576
-0.335537 -0.00863692 0.506376
0.328063 -0.182474 0.773912
-0.30391 -0.498066 0.668956
0.046641 -0.500432 0.308431
-0.163948 0.787613 -0.366372
0.150007 -0.038161 0.957034
-0.200073 0.314908 -0.0732157
0.359143 -0.0454376 0.384517
-0.130968 -0.0135459 0.956851
0.247517 -0.0516572 0.891815
-0.12954 -0.482953 0.312862
-0.146124 0.853579 -0.218747
-0.308658 0.43336 -0.368305
0.143447 0.00727528 0.940085
0.337836 -0.00655256 0.448549
0.229555 0.0663178 0.828702
-0.258195 -0.248301 0.898482
-0.313467 0.030566 0.566851
-0.0152667 -0.0940994 1.02438
-0.379346 0.604049 -0.213075
-0.291818 -0.690195 0.788408
0.167426 0.259011 -0.0241111
-0.01374 -0.0942759 1.03402
-0.384792 0.647908 -0.143704
0.126715 0.537337 0.0111468
0.295399 0.395443 -0.540067
-0.0314129 0.062618 0.944549
-0.171473 0.178284 0.642915
-0.0269807 0.832763 -0.306956
-0.0552219 -0.529321 0.415644
-0.26179 0.101674 0.574769
-0.253941 0.0157408 0.848168
0.313132 -0.399051 0.881192
0.360088 -0.187609 0.554338
-0.174532 -0.282877 -0.121531
-0.0711811 0.413275 -0.623292
0.342627 -0.106257 -0.015664
-0.334099 -0.00961306 0.563635
-0.265278 0.133372 0.0353559
0.0490439 -0.0525287 1.02501
-0.172782 -0.0812671 0.947651
-0.10286 0.172311 0.802347
0.186164 -0.487701 0.417533
-0.233686 0.131486 0.579487
0.204392 0.157257 0.584394
0.199187 0.49892 -0.545668
0.0502685 -0.34467 -0.0665397
-0.0296124 0.0304081 0.965777
0.181137 0.872948 -0.224154
0.0884331 0.12573 -0.258533
0.216965 0.931825 -0.261167
0.105712 -0.548895 -0.0268432
-0.379176 -0.364086 0.102343
0.349301 -0.0521301 0.560904
0.122404 0.729951 -0.151266
0.168022 0.778755 -0.386065
-0.0789269 -0.06284 0.994959
-0.178221 0.788374 -0.325575
0.0981278 -0.457279 0.230677
-0.327755 0.0676272 0.239516
0.28283 -0.632563 0.691009
-0.209996 0.761876 -0.268358
-0.338046 -0.680095 0.0309463
0.0292367 -0.131565 -0.213064
-0.317288 -0.397295 0.364448
-0.238328 0.704586 -0.373617
0.0536794 0.762368 -0.447664
-0.147798 -0.472236 0.922294
-0.180783 0.946411 -0.244635
0.172796 -0.723594 0.0247169
0.279611 -0.0552387 0.858547
-0.165819 0.804418 -0.335288
-0.27622 0.344814 -0.176785
0.0210984 -0.44987 0.691901
-0.240714 0.760641 -0.229576
-0.331546 -0.262105 0.774295
0.13572 0.310986 0.159838
0.228165 -0.692422 0.147407
0.357964 -0.0317511 0.0731655
-0.390758 0.753705 -0.27032
-0.0965198 -0.444834 0.175662
0.162591 0.796641 -0.337706
0 -0.434774 0.0615192
0.032544 -0.433336 0.0684456
0 -0.0782912 1.00911
0.134862 0.801108 -0.364702
0.0312142 -0.420036 0.03584
-0.203007 -0.591569 0.647127
-0.312606 0.638668 -0.319124
-0.191458 0.831381 -0.232334
-0.0798727 0.262384 0.399618
-0.084054 0.824638 -0.268864
0.294876 0.383503 -0.203773
0.241923 -0.609859 -0.117359
0.23546 -0.269794 -0.12322
0.0517951 -0.0798093 1.0112
-0.328162 -0.387696 0.483083
-0.209392 -0.47177 0.928314
0.328122 -0.0112347 0.673608
0.384425 -0.235652 0.245143
0.0369868 0.226526 0.54726
-0.172619 0.221245 -0.0722104
-0.125628 0.296564 0.306829
0.313467 0.030566 0.566851
-0.0344846 -0.0534302 1.03232
0.125628 0.296564 0.306829
-0.375418 -0.216313 0.0359591
0.125665 -0.664371 0.877017
-0.0787362 0.822102 -0.294366
-0.196806 0.141274 -0.362924
-0.385185 -0.214712 0.178025
0.180783 0.946411 -0.244635
0.109744 -0.0412763 0.976341
0.0709982 0.126709 -0.538642
-0.158786 0.0751889 -0.141343
0.342627 -0.106257 -0.015664
0.199176 -0.699686 0.68654
0.335537 -0.00863692 0.506376
-0.228165 -0.692422 0.147407
0.343967 0.620068 -0.286887
0.095203 0.828981 -0.232883
-0.0692761 0.505582 -0.562042
-0.3576 -0.096426 0.55865
-0.430349 0.658277 -0.154382
-0.194975 -0.474631 0.472428
0.402685 0.758643 -0.236201
-0.317321 0.0335117 0.454173
0.0627521 0.0592134 0.940397
0.412958 0.685943 -0.291128
0.351215 0.0204208 0.221415
0.293195 0.482084 -0.276654
-0.321376 0.576724 -0.185683
0.336544 -0.303107 0.775339
-0.182701 -0.527846 -0.109937
0.267222 0.417414 -0.116444
-0.0638357 -0.444618 0.15006
-0.132936 0.312061 0.210485
-0.143787 -0.462243 0.587914
0.282982 -0.0932074 0.86163
-0.195015 0.146226 0.738197
0.0428926 0.103386 -0.257977
-0.283535 -0.198083 -0.11242
0.134862 0.801108 -0.364702
0.193634 0.339499 -0.652866
-0.277858 0.727498 -0.319523
-0.148938 -0.0188178 0.950827
-0.131964 -0.111136 -0.188613
-0.306638 0.268641 -0.338166
-0.102981 -0.465723 0.632974
-0.034368 -0.461296 0.211229
0.380901 -0.277243 0.032671
0.238934 0.137098 0.472953
0.0724773 0.219588 0.599773
-0.0320458 -0.45108 0.17059
0.0321871 -0.0691596 -0.222731
0.152825 0.914652 -0.226568
0.153901 0.116281 -0.399697
0.209701 0.569968 -0.0807895
0.243518 -0.430642 -0.121062
0 -0.503509 0.307563
0.248642 -0.724519 0.790895
-0.0938769 -0.0385712 0.986828
0.212268 0.218116 0.0448664
-0.198381 0.950853 -0.26973
0.181068 0.796668 -0.322844
0.291391 0.478507 -0.418527
0.163882 -0.120989 0.949271
0.114603 0.104637 -0.445501
0.0703592 0.199987 0.759265
-0.146124 0.853579 -0.218747
-0.278055 0.600765 -0.320108
-0.402685 0.758643 -0.236201
0.190442 0.122856 -0.437696
0 -0.459742 0.666605
0.115236 0.837896 -0.222054
0 0.227033 0.602086
-0.256292 0.0501447 0.807253
0.0705006 0.811753 -0.205807
0.118034 0.096215 -0.193935
0.32003 0.739642 -0.304714
0.31171 0.235804 -0.406418
0.390758 0.753705 -0.27032
0.0593708 0.448955 0.0551193
0.286019 0.0682635 0.624906
-0.170184 0.299829 0.20555
0 0.672219 -0.0228265
0.0162142 -0.396858 0.808469
-0.129144 -0.123186 0.961976
-0.101727 -0.509066 0.362546
0.348799 -0.334989 -0.0832331
0.0476184 -0.0223971 1.0006
0.364199 -0.140124 0.498352
-0.20189 0.765574 -0.22074
0.217964 0.748268 -0.323878
-0.0955999 -0.0476973 0.985969
0.114773 0.801816 -0.205592
0.303456 0.759588 -0.213776
-0.335563 -0.561971 0.78431
0.227442 -0.724741 0.0933852
-0.213279 -0.204742 0.922518
-0.307072 0.0296092 0.675079
0.309915 -0.178867 0.822052
0.34177 0.649107 -0.318477
-0.343331 -0.409171 0.778577
-0.19325 0.264928 0.298974
-0.267679 0.610284 -0.129549
-0.340911 -0.350598 0.77666
0.0178069 -0.0869021 1.01538
-0.209701 0.569968 -0.0807895
-0.236523 0.195781 0.0609139
0.208076 0.764415 -0.241789
-0.0598989 -0.0753391 1.00401
0.134862 0.801108 -0.364702
0.280089 -0.425608 0.586435
0.125921 0.862724 -0.222037
-0.270541 0.0874645 -0.00640695
0.229555 0.0663178 0.828702
0.138015 -0.443895 0.192281
-0.109485 -0.488354 0.558077
-0.335024 -0.360119 0.596759
0 0.831312 -0.342444
0.294439 0.591849 -0.266039
-0.183529 0.754714 -0.188935
-0.300161 0.759231 -0.259113
0.376188 -0.22098 0.374406
-0.0774719 -0.570173 0.85133
0.375881 0.662505 -0.310821
-0.0583871 -0.073576 0.998233
-0.05977 -0.0942344 0.98419
0 0.259825 -0.661348
0.174025 0.632377 -0.495223
-0.0209047 -0.039677 1.02317
0.133714 -0.0642499 0.965416
0.109851 -0.0516794 0.976283
0.0242006 -0.0212264 1.00515
-0.01374 -0.0942759 1.03402
0.209392 -0.47177 0.928314
-0.0406901 0.0790388 -0.244814
0.165819 0.804418 -0.335288
-0.102107 -0.469936 -0.0239275
0.296022 0.0786559 0.407077
0.0359638 0.781745 -0.13792
-0.338685 -0.226798 0.720092
-0.0883591 0.0217178 0.955411
0.191438 0.774734 -0.312022
-0.118034 0.096215 -0.193935
-0.141818 0.921807 -0.235425
0.265715 0.160342 -0.469212
0.114009 -0.358339 -0.0759521
0.221713 0.885753 -0.253374
0 0.672219 -0.0228265
0 0.24666 0.447191
-0.186164 -0.487701 0.417533
0.227961 0.337016 -0.641468
-0.23911 0.14497 -0.502892
-0.359143 -0.0454376 0.384517
0.125569 0.33518 0.0110101
0 0.0779149 -0.251636
-0.324423 0.0791082 0.189745
-0.0724773 0.219588 0.599773
0.249809 0.379204 -0.0978893
0.18104 0.470039 0.00485434
0.209229 0.892731 -0.238166
0.0210984 -0.44987 0.691901
-0.349444 -0.148083 -0.0217878
-0.358457 -0.200112 -0.0267162
0.36907 -0.228332 0.435279
0.20511 -0.461837 0.475502
0.253941 0.0157408 0.848168
-0.0152462 -0.0676801 1.04602
-0.115859 -0.693483 0.748115
-0.0591053 0.0273947 0.96148
0.107395 -0.0653463 0.975253
-0.190293 0.237055 0.0258931
0.111325 0.219111 0.491389
-0.107395 -0.0653463 0.975253
0.385185 -0.214712 0.178025
0.0505691 0.828853 -0.304368
-0.19621 -0.447285 0.538732
-0.225597 0.0165132 0.878354
-0.32675 0.280027 -0.535933
0.385185 -0.214712 0.178025
0.281859 0.0674534 0.67711
0 0.330325 0.0716557
-0.26804 -0.0666021 -0.106124
0.37698 -0.0821329 0.123634
0.222367 0.12354 0.732548
0.125551 0.112279 -0.490196
0.339619 -0.266826 0.718796
-0.0883591 0.0217178 0.955411
-0.209867 -0.161573 0.925244
0 -0.0903561 1.04431
0.348799 -0.334989 -0.0832331
0.213772 0.26767 -0.647803
0.317818 -0.392423 0.305485
-0.196177 -0.511769 0.183546
-0.293784 -0.559568 0.181063
0.0403517 0.7183 -0.0719016
0.311718 -0.219243 0.822794
0.0529288 -0.526727 0.468796
-0.0238268 -0.46053 0.664171
-0.271576 0.561647 -0.416318
-0.283052 -0.132631 0.863571
-0.365146 -0.0406368 0.324829
0.0858416 0.32349 0.0605597
0.19325 0.264928 0.298974
-0.0771688 0.744134 -0.128582
-0.308256 -0.0631453 -0.0619102
-0.335097 -0.0554519 0.724795
-0.181979 0.203634 0.435289
0.200073 0.314908 -0.0732157
-0.0899111 -0.634521 0.847274
-0.20969 0.164574 0.478658
-0.199905 0.685497 -0.462496
-0.173937 0.295795 0.151795
-0.271665 0.531425 -0.180446
0.144853 -0.503338 0.468859
0.0670456 0.125156 0.886255
0.0652762 0.0925539 0.91594
0 0.259825 -0.661348
0.265715 0.160342 -0.469212
0.0468991 0.323707 0.17766
0.114773 0.801816 -0.205592
0.307987 -0.0331195 -0.049691
-0.0152667 -0.0940994 1.02438
-0.289863 0.0225221 0.77107
-0.133131 -0.0374762 0.965091
-0.0427012 -0.0854758 1.01505
0.342489 -0.483419 0.78141
-0.153638 0.772539 -0.191376
-0.388682 0.680406 -0.144893
-0.176218 -0.0952439 -0.168768
-0.181563 -0.0218941 0.9332
0.0781392 -0.343402 -0.0680291
-0.212896 0.714905 -0.428435
-0.138821 0.452917 -0.589054
0.182766 -0.687312 0.135767
-0.0448664 0.351036 0.0368917
-0.147798 -0.472236 0.922294
-0.126656 -0.240414 0.945024
0.375987 -0.340814 -0.0337268
-0.177164 0.238112 -0.093383
0.217964 0.748268 -0.323878
-0.172619 0.221245 -0.0722104
0.298509 0.427522 -0.236282
0.171165 0.605799 -0.0764289
-0.328162 -0.387696 0.483083
-0.148115 -0.512563 0.149929
0.21248 0.178956 0.429644
0.385825 -0.174501 0.180766
0.0803711 0.0844567 -0.225271
-0.222989 -0.439421 0.53835
0.111325 0.219111 0.491389
-0.126235 0.896792 -0.232757
0.168557 0.27236 -0.0447148
0.136552 -0.67511 -0.0280042
-0.232462 0.00608204 -0.106821
-0.0997946 -0.492468 0.0352712
-0.363023 -0.0919062 0.0524717
-0.271184 0.525759 -0.460079
-0.135299 0.30832 0.112598
0 0.505678 -0.563016
-0.185529 0.224498 0.389084
-0.024587 -0.350255 -0.0669927
-0.142824 0.650926 -0.0969906
-0.139893 -0.0548182 -0.181103
-0.314639 0.343639 -0.292523
0.229877 0.446038 -0.0428095
-0.176115 0.180806 0.535582
0.0838463 0.11062 -0.238883
-0.132936 0.312061 0.210485
-0.190293 0.237055 0.0258931
0.104733 0.755088 -0.444831
-0.237614 0.630468 -0.469873
-0.285353 0.520853 -0.361551
0.102107 -0.469936 -0.0239275
-0.363023 -0.0117289 0.147082
0.0306399 -0.195728 0.970285
0.109331 -0.0304408 0.974293
-0.299573 0.127115 0.211987
0.05977 -0.0942344 0.98419
-0.15338 0.935554 -0.282029
0.0541294 -0.000582154 0.980957
-0.365146 -0.0406368 0.324829
-0.105384 0.203917 0.704755
0.221341 0.236481 0.293418
0.0313039 0.800824 -0.16616
0.216862 0.918936 -0.303965
-0.214224 0.916672 -0.246046
0.176881 -0.48852 0.469991
-0.10286 0.172311 0.802347
0.364779 -0.186112 0.496433
0.0470212 0.120443 -0.299626
-0.320467 -0.390454 0.538527
-0.287544 -0.214549 0.864938
-0.23281 0.229543 0.110217
-0.237614 0.630468 -0.469873
-0.319732 -0.633454 0.786428
0.163536 -0.447685 0.255959
0.33595 0.0447295 0.115485
-0.364968 -0.12541 0.046235
0.307072 0.0296092 0.675079
0.104202 0.191409 0.755412
-0.0273784 -0.0760818 0.993721
0.209867 -0.161573 0.925244
0.0906862 -0.492986 0.310407
-0.317818 -0.392423 0.305485
0.201854 0.770051 -0.234112
0.37698 -0.0821329 0.123634
-0.376444 -0.45013 0.0999599
-0.0640997 -0.158632 0.974036
-0.141316 -0.607217 -0.0730372
-0.183641 -0.455489 0.534379
0.0640997 -0.158632 0.974036
0.239082 0.578957 -0.111996
-0.0529288 -0.526727 0.468796
0.379053 0.63587 -0.283895
0.0467382 0.325284 0.136739
-0.380073 -0.0641595 0.195141
-0.183529 0.754714 -0.188935
0.162591 0.796641 -0.337706
0.271576 0.561647 -0.416318
0.120264 0.900007 -0.266157
0.153584 -0.625261 0.914716
-0.212896 0.714905 -0.428435
-0.139858 0.195421 0.647569
0.149393 0.222637 0.439843
0.158724 0.882351 -0.220155
0.380073 -0.0641595 0.195141
-0.354812 -0.320109 0.488079
-0.0436281 0.336529 0.047541
0.312495 -0.42258 0.208415
0.317327 -0.257308 0.824743
-0.0891348 0.832003 -0.268429
0.258116 0.645451 -0.13607
-0.151415 0.801648 -0.215482
-0.317288 -0.397295 0.364448
-0.253262 -0.209214 0.897882
-0.294592 -0.571581 0.678753
0.279361 0.583208 -0.137022
0.238161 -0.677382 -0.0918856
-0.247517 -0.0516572 0.891815
0.274851 -0.146856 -0.114171
-0.0404745 0.828353 -0.247459
-0.024587 -0.350255 -0.0669927
0.225521 0.344757 -0.0845003
-0.0137291 -0.0795664 1.04692
0.227961 0.337016 -0.641468
-0.227173 -0.0372356 -0.128413
-0.165912 0.939303 -0.292739
0.0499681 0.812176 -0.199395
-0.0703592 0.199987 0.759265
-0.0536794 0.762368 -0.447664
0.281161 -0.710704 0.0910758
-0.300703 0.102007 0.305644
-0.153713 0.826966 -0.334024
0.308326 -0.632734 0.733956
0.205912 0.761992 -0.209879
0.199905 0.685497 -0.462496
-0.179633 -0.708233 -0.0350267
-0.153645 -0.534978 0.650489
-0.0589761 0.827121 -0.27268
0.173109 0.951035 -0.277835
0.248651 0.737773 -0.18066
0.126096 0.69557 -0.127071
-0.325558 -0.615423 0.139592
-0.0389355 0.245943 0.446792
-0.0505691 0.828853 -0.304368
-0.261632 -0.427221 0.422701
0.0999951 -0.56397 0.0317575
0.290372 0.624108 -0.317788
0.109848 0.825231 -0.308777
0.324701 0.24108 -0.502727
0.24088 -0.688682 0.691628
-0.315639 -0.625673 0.839496
0 0.800708 -0.414889
0.102733 -0.558625 0.896274
0.0352238 0.828719 -0.341387
0.212012 0.0755801 0.841201
0.217701 0.11212 0.775527
-0.199905 0.685497 -0.462496
0.105384 0.203917 0.704755
-0.188626 0.112308 0.821548
0.178357 0.783728 -0.331262
-0.212268 0.218116 0.0448664
-0.0759743 0.151547 -0.579976
-0.239299 0.151564 0.0118342
-0.01374 -0.0942759 1.03402
0 -0.459742 0.666605
0.126096 0.69557 -0.127071
-0.126656 -0.240414 0.945024
-0.137434 0.789176 -0.20042
-0.183529 0.754714 -0.188935
-0.32688 0.680784 -0.145207
0.198244 -0.736784 0.793448
0.15335 -0.595644 0.66033
0.198408 -0.728532 0.734591
-0.0177789 -0.0547726 1.03745
-0.0593708 0.448955 0.0551193
0.0248684 -0.240765 -0.171792
-0.228365 -0.446181 0.420977
0.125921 0.862724 -0.222037
-0.307987 -0.0331195 -0.049691
-0.235856 0.0765799 0.805621
0.0502685 -0.34467 -0.0665397
-0.248642 -0.724519 0.790895
-0.134148 0.794627 -0.38492
0.320929 0.0389878 0.398635
-0.19325 0.264928 0.298974
0.0939443 0.0532189 0.93429
-0.185474 -0.638484 0.162245
-0.049547 -0.311956 -0.105817
0.190658 0.0074224 -0.137241
-0.0389355 0.245943 0.446792
0.289863 0.0225221 0.77107
0.0476184 -0.0223971 1.0006
0.177164 0.238112 -0.093383
0 -0.0782912 1.00911
-0.221713 0.885753 -0.253374
-0.274846 -0.418754 0.252658
0.0418935 0.284411 0.356338
-0.330786 0.26947 -0.445487
-0.0428926 0.103386 -0.257977
-0.229877 0.446038 -0.0428095
0 -0.0876552 1.01738
0.339619 -0.266826 0.718796
0.301492 -0.292885 0.870674
-0.369702 -0.323364 0.243084
-0.294197 -0.618974 0.884469
-0.301492 -0.292885 0.870674
-0.106278 0.87162 -0.248059
0 0.301194 0.312719
0.358602 -0.37797 0.17897
-0.224047 -0.163495 -0.142015
-0.244653 -0.641994 0.666514
0.248629 0.311098 -0.153862
0 0.220553 0.711025
-0.134533 0.161682 0.796578
0.0202817 -0.307657 0.921165
0.0969194 -0.478778 0.897495
-0.179801 0.930945 -0.23207
-0.233686 0.131486 0.579487
-0.342489 -0.483419 0.78141
0.296022 0.0786559 0.407077
-0.195451 0.128497 -0.407372
0.136392 0.50382 -0.556974
0.378455 -0.525308 -0.0356201
-0.363531 -0.0923241 0.440867
0.32675 0.280027 -0.535933
0.0788425 -0.0488271 1.00064
-0.0357781 0.218679 0.710249
-0.183641 -0.455489 0.534379
-0.3154 0.606871 -0.278418
0.0788425 -0.0488271 1.00064
0.350284 -0.364453 0.244783
-0.0337403 0.129119 0.889852
0.0455092 0.326229 0.0998335
-0.369702 -0.323364 0.243084
-0.0173499 -0.340897 0.891348
0.198244 -0.736784 0.793448
0.149721 0.3008 -0.00470029
-0.278055 0.600765 -0.320108
0.0272441 0.00174637 0.985368
0.300703 0.102007 0.305644
0 -0.0724905 1.00177
0.0323291 -0.440606 0.100743
-0.213035 0.170022 -0.00953204
0.214286 0.629383 -0.484754
-0.23546 -0.269794 -0.12322
-0.0438017 0.818098 -0.377412
-0.199084 0.77337 -0.281405
0.287063 -0.417912 0.42339
-0.209996 0.761876 -0.268358
0.0619855 -0.419454 0.0516405
0 -0.445956 0.12884
0.307072 0.0296092 0.675079
-0.100185 0.816042 -0.313185
-0.238726 0.181983 -0.331175
-0.0449537 0.11665 -0.27594
-0.161614 0.694175 -0.469576
-0.0490439 -0.0525287 1.02501
-0.341299 -0.375944 0.366232
0.282371 -0.626877 0.167977
-0.0425527 -0.311463 0.921053
-0.127225 0.865094 -0.306986
-0.216862 0.918936 -0.303965
-0.385825 -0.174501 0.180766
-0.184529 0.181235 -0.238574
0.180783 0.946411 -0.244635
-0.0798727 0.262384 0.399618
0.0864529 -0.0640166 0.98579
-0.0969194 -0.478778 0.897495
0.357964 -0.0317511 0.0731655
-0.257915 0.488969 -0.517721
0.229681 -0.733842 0.0266899
-0.305787 0.218563 -0.547441
-0.202195 0.446614 -0.579567
0.0874752 0.345901 0.0284499
-0.291362 -0.413379 0.536815
-0.143329 0.804627 -0.337252
0.368236 -0.614976 0.0306267
0 0.327327 0.102505
-0.224501 0.676789 -0.452578
0.0631528 -0.123094 0.979468
0.0152667 -0.0940994 1.02438
0.0652762 0.0925539 0.91594
0.117787 0.25622 0.397308
0.112672 0.868658 -0.232446
-0.119758 -0.0911109 0.968067
0.185474 -0.638484 0.162245
0.296456 0.295786 -0.60247
0.0223763 0.833445 -0.275661
0.0494105 0.797681 -0.413491
-0.124777 0.0448234 0.926767
0.12704 -0.448099 -0.0735785
0.320929 0.0389878 0.398635
0 0.45452 -0.593995
-0.165912 0.939303 -0.292739
0 -0.194995 0.971379
0.117787 0.25622 0.397308
0.379025 -0.149836 0.112764
0.188536 -0.577394 0.174934
-0.383633 -0.167556 0.313214
-0.339121 -0.546516 0.150832
0.291818 -0.690195 0.788408
0.106249 -0.0142167 0.968533
-0.303456 0.759588 -0.213776
0.0792455 0.219987 -0.642965
-0.357964 -0.0317511 0.0731655
-0.189431 0.0176502 0.907717
0.194817 -0.437402 0.239358
-0.0840611 -0.222685 -0.173847
0.298292 0.0729821 0.0271766
0.159856 0.939686 -0.239651
0.194975 -0.474631 0.472428
-0.375596 -0.311145 0.175939
-0.25113 -0.502745 0.197094
0.149543 -0.554429 0.922812
0.377148 -0.176656 0.375911
0 0.284012 0.356829
0.126841 0.897388 -0.285836
0.200073 0.314908 -0.0732157
-0.227725 0.245742 -0.199837
0.201028 0.279793 0.204606
-0.241073 -0.571789 0.188527
-0.0956803 -0.199455 0.960676
-0.32688 0.680784 -0.145207
0.195451 0.128497 -0.407372
0.237614 0.630468 -0.469873
-0.460337 0.681448 -0.17325
-0.182289 0.937359 -0.304334
0.138938 0.890583 -0.222912
0.0427143 0.830406 -0.274631
0.299573 0.127115 0.211987
0.279797 0.207117 -0.366981
0.0836698 0.824545 -0.249204
0.23281 0.229543 0.110217
0 -0.434774 0.0615192
-0.329541 0.345256 -0.410956
0.0544734 -0.0758718 0.989219
0.2461 -0.678205 0.889508
-0.0771327 -0.378765 -0.022981
0.21453 0.407775 -0.0317089
-0.342419 -0.00261151 0.390867
-0.150371 0.262453 -0.657355
-0.253941 0.0157408 0.848168
-0.0502685 -0.34467 -0.0665397
-0.284726 0.698216 -0.343913
0.237614 0.630468 -0.469873
-0.141278 0.921251 -0.283964
-0.125665 -0.664371 0.877017
0.338487 -0.0443826 0.00235778
-0.26422 0.274293 -0.228207
0.372551 -0.0487428 0.133083
0.121652 0.278062 0.352302
-0.16267 -0.0297463 0.947597
0.0434892 0.30185 0.311934
-0.106249 -0.0142167 0.968533
-0.335024 -0.360119 0.596759
-0.294439 0.591849 -0.266039
0.172619 0.221245 -0.0722104
0.0271444 -0.0763309 1.04139
-0.122579 0.311429 0.0436831
0.17918 0.290497 -0.0609743
-0.264402 0.101968 0.520397
0.335537 -0.00863692 0.506376
0.0321871 -0.0691596 -0.222731
0.307399 0.208213 -0.46356
0.380479 -0.0754649 0.257209
-0.174785 -0.442414 0.24495
-0.306638 0.268641 -0.338166
-0.0899111 -0.634521 0.847274
-0.138015 -0.443895 0.192281
0.176513 0.760515 -0.410655
-0.201028 0.279793 0.204606
-0.16267 -0.0297463 0.947597
0.26898 -0.103901 -0.112945
0.357964 -0.0317511 0.0731655
0.342419 -0.00261151 0.390867
0.188173 0.564066 -0.51907
0.174025 0.632377 -0.495223
-0.0964942 -0.434904 0.0342915
-0.358205 0.712515 -0.324745
-0.269878 -0.0318881 -0.0928838
0.117499 -0.281642 0.935739
-0.112515 -0.451919 0.0935688
0.0502685 -0.34467 -0.0665397
0.367842 0.597467 -0.17194
-0.132033 -0.481167 0.556781
0.243641 0.166107 0.375362
-0.0544734 -0.0758718 0.989219
0.186164 -0.487701 0.417533
0.322487 -0.0565049 0.774019
0.122462 -0.037914 0.969963
0.239299 0.151564 0.0118342
-0.364779 -0.186112 0.496433
-0.34723 -0.0531297 0.617509
-0.0468991 0.323707 0.17766
0.178799 0.187723 0.48375
0.26979 -0.455493 0.624003
-0.160058 0.168229 -0.195838
-0.0297219 -0.0653048 1.04059
0.230534 0.131902 0.632959
0.206663 -0.472505 0.418626
-0.138236 0.191142 0.700393
-0.321008 0.352655 -0.511417
0.173106 -0.230478 -0.142628
-0.349444 -0.148083 -0.0217878
0.315111 -0.397679 0.592146
-0.0796433 -0.304819 -0.108871
0.065741 -0.440111 0.119726
-0.206641 -0.0168625 0.913183
0.0536794 0.762368 -0.447664
0.346277 0.0318576 0.16704
0.385185 -0.214712 0.178025
0.128713 0.0776757 0.9026
0.252371 -0.581833 0.652832
0.199052 0.0623656 -0.105989
0.162292 0.776737 -0.200861
0.0403517 0.7183 -0.0719016
-0.149341 -0.451522 0.166423
-0.138938 0.890583 -0.222912
-0.267 0.601931 -0.388185
-0.247008 0.54474 -0.114114
-0.386429 -0.137312 0.183762
0.0525276 -0.0775374 1.01483
0.216036 0.894273 -0.311279
0.0956803 -0.199455 0.960676
0.0810019 -0.0733797 0.982855
-0.124102 -0.450719 0.228684
0.380964 -0.432504 -0.0361787
-0.199052 0.0623656 -0.105989
0.0883591 0.0217178 0.955411
-0.153713 0.826966 -0.334024
0.0632284 0.496693 0.0522852
0 0.284012 0.356829
0.125245 -0.0487781 0.969619
-0.192938 -0.45045 0.307624
-0.0455092 0.326229 0.0998335
0.0840444 -0.64607 0.797118
0.0434892 0.30185 0.311934
-0.274851 -0.146856 -0.114171
-0.12147 -0.249274 -0.145022
0.34177 0.649107 -0.318477
0.249108 0.0961373 0.728207
0.0290027 -0.401336 0.00260959
-0.16045 0.112915 -0.441079
0.192003 0.257627 -0.114007
-0.257915 0.488969 -0.517721
0 0.834904 -0.275945
-0.202946 -0.113321 0.930645
0.264402 0.101968 0.520397
0.148915 0.00578811 -0.165362
-0.321376 0.576724 -0.185683
-0.0652762 0.0925539 0.91594
-0.174785 -0.442414 0.24495
-0.310744 -0.658159 0.12474
0.191735 0.902282 -0.228209
0.267679 0.610284 -0.129549
-0.0434892 0.30185 0.311934
-0.136706 0.926532 -0.249134
-0.348799 -0.334989 -0.0832331
0.159665 0.285267 0.0452783
0.348891 -0.186539 0.666645
-0.237857 -0.0169093 0.886885
-0.124102 -0.450719 0.228684
0.327429 0.0566863 0.291075
0.0750102 0.301309 -0.668637
0.145237 -0.635178 0.13052
-0.213045 0.609177 -0.109989
-0.0652946 -0.0700523 1.00523
-0.349859 -0.0980743 0.670701
-0.249809 0.379204 -0.0978893
0.069956 -0.47422 0.735292
0.0177789 -0.0547726 1.03745
-0.0400356 -0.499329 0.565268
0.0352263 -0.426311 0.757202
-0.049547 -0.311956 -0.105817
0.0670456 0.125156 0.886255
0.0636123 -0.450028 0.182161
0.23546 -0.269794 -0.12322
-0.184529 0.181235 -0.238574
0.135327 0.828572 -0.217894
0.157976 -0.694713 0.696986
-0.358457 -0.200112 -0.0267162
0.300161 0.759231 -0.259113
0.225521 0.344757 -0.0845003
0.0899111 -0.634521 0.847274
0.195536 0.768708 -0.323732
0.2255 0.918412 -0.287909
-0.0407812 -0.0765567 1.00299
0 0.37634 0.0420973
0.136706 0.926532 -0.249134
-0.288174 0.116771 0.0639197
-0.0524328 -0.518796 0.361628
0.0361117 -0.34665 0.891624
-0.181848 0.741315 -0.180043
-0.212896 0.714905 -0.428435
-0.139858 0.195421 0.647569
-0.252371 -0.581833 0.652832
0 -0.322733 -0.103397
0.278055 0.600765 -0.320108
-0.0899111 -0.634521 0.847274
0.173735 0.178964 0.589175
-0.31171 0.235804 -0.406418
0.350974 0.0108683 0.277027
0.31171 0.235804 -0.406418
-0.23546 -0.269794 -0.12322
-0.126841 0.897388 -0.285836
0.10501 0.817882 -0.310157
-0.0664738 0.570216 -0.533525
0.130136 0.568004 -0.528764
-0.102107 -0.469936 -0.0239275
0.141316 -0.607217 -0.0730372
0 -0.533724 0.415511
-0.177164 0.238112 -0.093383
0 -0.0876552 1.01738
0 0.641579 -0.507325
-0.0455092 0.326229 0.0998335
0.0321871 -0.0691596 -0.222731
-0.101087 -0.0620719 -0.200364
-0.105384 0.203917 0.704755
-0.271501 0.201979 -0.579853
-0.369537 -0.538419 0.0961211
0.326452 0.645309 -0.138504
0.317327 -0.257308 0.824743
0.0699464 0.823757 -0.248502
-0.209701 0.569968 -0.0807895
-0.136706 0.926532 -0.249134
-0.350974 0.0108683 0.277027
0.249966 0.723503 -0.332259
-0.319732 -0.633454 0.786428
0.179801 0.930945 -0.23207
-0.0788354 0.774284 -0.158189
0.24282 0.0875955 0.770725
0.326345 0.612341 -0.141546
0.339774 -0.073126 -0.00816016
-0.166543 0.164739 0.744396
0 -0.448613 0.69461
-0.361458 -0.0619596 0.0609153
-0.202503 0.759013 -0.342238
0.140188 0.893495 -0.304854
-0.174025 0.632377 -0.495223
-0.240714 0.760641 -0.229576
-0.0524328 -0.518796 0.361628
-0.214922 -0.0472768 0.917853
-0.0593708 0.448955 0.0551193
-0.151776 -0.503865 0.416665
0.0891348 0.832003 -0.268429
-0.194068 0.37243 -0.0269037
0.129769 -0.445891 0.210992
-0.275748 0.0634772 0.725933
0.128262 0.813355 -0.215464
0.165953 -0.00373407 0.934179
-0.134533 0.161682 0.796578
-0.190293 0.237055 0.0258931
0 0.327327 0.102505
0.387436 -0.440321 0.0296682
0.0428926 0.103386 -0.257977
0.271184 0.525759 -0.460079
0 -0.0956202 1.03609
-0.379176 -0.364086 0.102343
0 0.22586 0.657001
0.288873 0.0678482 0.57056
0.267341 0.0573644 0.769829
-0.095203 0.828981 -0.232883
0.354786 -0.614851 0.0904298
-0.164015 0.929339 -0.232094
-0.162464 0.791078 -0.351846
0.150533 0.744043 -0.44196
-0.186175 0.766882 -0.204739
0.153047 -0.720555 0.741401
0 0.227033 0.602086
-0.120161 0.900194 -0.247801
-0.0810019 -0.0733797 0.982855
0.102374 -0.516827 0.468605
-0.358457 -0.200112 -0.0267162
0.193634 0.339499 -0.652866
0.218865 -0.458568 0.419816
-0.278055 0.600765 -0.320108
0.379525 -0.278609 0.243679
0.0273784 -0.0760818 0.993721
-0.209392 -0.47177 0.928314
-0.270197 -0.670204 0.705429
-0.0306399 -0.195728 0.970285
0.0622199 -0.197393 0.966789
-0.182289 0.937359 -0.304334
0.0298425 -0.0936976 0.988793
-0.032518 -0.377955 0.851217
0.0162142 -0.396858 0.808469
-0.140849 -0.473458 0.563316
0.201734 0.767127 -0.28955
0.291063 0.0681481 0.515313
-0.35769 -0.345276 0.36828
0.447397 0.702392 -0.15815
-0.241923 -0.609859 -0.117359
0.287063 -0.417912 0.42339
0.174025 0.632377 -0.495223
0.229147 0.73046 -0.348619
0.28283 -0.632563 0.691009
-0.315185 0.0311388 0.510574
-0.0470212 0.120443 -0.299626
0.046641 -0.500432 0.308431
-0.0238268 -0.46053 0.664171
0.126841 0.897388 -0.285836
0.177314 0.204818 -0.0510199
-0.116698 0.0146029 0.948102
0.138478 0.148595 -0.265069
0.124777 0.0448234 0.926767
0.331237 -0.488983 0.719836
-4.33681e-19 0.834757 -0.307668
-0.0999951 -0.56397 0.0317575
0 0.613137 0.0118372
0.26804 -0.0666021 -0.106124
0.320025 0.0585873 0.0683354
0.177264 0.282839 0.0875537
0.344841 -0.317709 0.600763
0.131964 -0.111136 -0.188613
0.32688 0.680784 -0.145207
0.3576 -0.096426 0.55865
0 -0.306916 0.921405
-0.224677 -0.442616 0.362277
0.0999951 -0.56397 0.0317575
0.0492429 0.116377 -0.329956
-0.153638 0.772539 -0.191376
-0.342627 -0.106257 -0.015664
0.363023 -0.0117289 0.147082
-0.327429 0.0566863 0.291075
0.201028 0.279793 0.204606
0.386398 -0.194374 0.247084
-0.287544 -0.214549 0.864938
0 -0.395546 0.810009
0.291063 0.0681481 0.515313
-0.182766 -0.687312 0.135767
0.289638 -0.411984 0.363044
0.12229 0.805309 -0.211386
0.266995 -0.336923 0.904292
-0.138236 0.191142 0.700393
-0.342261 -0.141944 0.72292
0.249108 0.0961373 0.728207
0.178799 0.187723 0.48375
0.284251 -0.173813 0.864211
0.320467 -0.390454 0.538527
-0.354445 -0.427851 -0.0878125
-0.293784 -0.559568 0.181063
-0.258195 -0.248301 0.898482
-0.137484 0.129002 -0.534091
0.0654567 -0.515878 0.79543
0.227725 0.245742 -0.199837
0.185308 0.513743 -0.0172354
-0.0525276 -0.0775374 1.01483
-0.34742 0.00319315 0.333602
0.069956 -0.47422 0.735292
-0.32675 0.280027 -0.535933
0.156119 -0.458526 0.595789
0 0.227033 0.602086
0.31171 0.235804 -0.406418
0.0436281 0.336529 0.047541
0.181848 0.741315 -0.180043
0.0441574 0.329119 0.0693112
0.136442 0.179619 0.750387
0.0541294 -0.000582154 0.980957
0.0360809 0.22396 0.656319
0.0787362 0.822102 -0.294366
0.131964 -0.111136 -0.188613
-0.375987 -0.340814 -0.0337268
-0.209867 -0.161573 0.925244
-0.0874752 0.345901 0.0284499
-0.107395 -0.0653463 0.975253
0.0788425 -0.0488271 1.00064
-0.0177789 -0.0547726 1.03745
0.0631528 -0.123094 0.979468
0.191876 0.948989 -0.288378
0.363023 -0.0117289 0.147082
0.252112 0.713887 -0.166078
-0.284862 -0.410239 0.304857
-0.101546 -0.475382 0.663157
-0.10286 0.172311 0.802347
-0.292915 -0.260195 -0.110308
0.119159 0.809804 -0.331351
0.135327 0.828572 -0.217894
-0.381949 -0.125584 0.315412
0.143447 0.00727528 0.940085
0.0352238 0.828719 -0.341387
0.281161 -0.710704 0.0910758
-0.267734 -0.472455 0.917082
-0.0598411 -0.0536198 1.01768
0.236433 0.132176 0.525634
0.12147 -0.249274 -0.145022
-0.291818 -0.690195 0.788408
0.130968 -0.0135459 0.956851
-0.0455092 0.326229 0.0998335
-0.0711811 0.413275 -0.623292
-0.149721 0.3008 -0.00470029
0.26179 0.101674 0.574769
0.378431 -0.114848 0.117331
-0.342261 -0.141944 0.72292
-0.0695062 0.18012 0.806775
-0.206663 -0.472505 0.418626
-0.0517509 -0.0608359 1.02473
0.119478 -0.295776 -0.113872
-0.187711 0.730295 -0.437134
-0.184529 0.181235 -0.238574
0.452589 0.744444 -0.206816
0.0910385 0.318251 0.216664
0.335024 -0.360119 0.596759
-0.0238367 -0.283103 -0.139843
-0.0695062 0.18012 0.806775
-0.032753 0.0962353 0.919852
-0.086003 0.820458 -0.291304
-0.095203 0.828981 -0.232883
0.05977 -0.0942344 0.98419
0.376221 -0.0834201 0.319025
-0.065741 -0.440111 0.119726
0.380901 -0.277243 0.032671
-0.213772 0.26767 -0.647803
-0.282982 -0.0932074 0.86163
0.112515 -0.451919 0.0935688
0.0398588 -0.442711 0.714357
0.214141 -0.334681 0.919903
-0.294197 -0.618974 0.884469
0.298292 0.0729821 0.0271766
0.0321871 -0.0691596 -0.222731
-0.358205 0.712515 -0.324745
0.0598989 -0.0753391 1.00401
0.1537 0.943252 -0.269054
-0.127225 0.865094 -0.306986
-0.0788425 -0.0488271 1.00064
-0.374384 -0.294532 0.308248
0.126715 0.537337 0.0111468
-0.351404 -0.354331 0.427814
-0.363729 -0.333817 0.306674
-0.209229 0.892731 -0.238166
0.229877 0.446038 -0.0428095
-0.176115 0.180806 0.535582
-0.12147 -0.249274 -0.145022
-0.109851 -0.0516794 0.976283
0.0716769 -0.583028 0.796447
0.249328 0.213762 0.242242
-0.0619855 -0.419454 0.0516405
-0.252112 0.713887 -0.166078
-0.213772 0.26767 -0.647803
0.0709982 0.126709 -0.538642
-0.316601 -0.396416 0.250199
-0.248651 0.737773 -0.18066
0.311167 0.763685 -0.236173
-0.174532 -0.282877 -0.121531
0.198244 -0.736784 0.793448
0.0627521 0.0592134 0.940397
0.311167 0.763685 -0.236173
0 0.499175 0.0586613
0.102596 0.115199 -0.359834
0.350284 -0.364453 0.244783
-0.253104 0.203435 0.118078
-0.338685 -0.226798 0.720092
0.168503 0.781447 -0.210541
-0.201725 0.863227 -0.234578
0.2461 -0.678205 0.889508
-0.138236 0.191142 0.700393
-0.169138 0.174847 0.695193
-0.227226 0.252859 0.204008
0.0788354 0.774284 -0.158189
0.264144 0.760816 -0.243923
-0.0468991 0.323707 0.17766
0.364968 -0.12541 0.046235
-0.0364517 0.2252 0.601479
0.0441574 0.329119 0.0693112
0.375418 -0.216313 0.0359591
-0.132033 -0.481167 0.556781
-0.136706 0.926532 -0.249134
0.34177 0.649107 -0.318477
-0.193702 0.87269 -0.329392
-0.311113 0.0304905 0.622016
-0.0549351 -0.471091 0.629642
-0.215759 0.757673 -0.200462
-0.343331 -0.409171 0.778577
0.08278 0.283223 0.354838
0 -0.286073 -0.138523
-0.172796 -0.723594 0.0247169
0.141316 -0.607217 -0.0730372
-0.312594 0.674309 -0.341185
-0.133001 -0.161124 0.956956
0.335563 -0.561971 0.78431
0.113201 0.701726 -0.474505
-0.238934 0.137098 0.472953
0.181068 0.796668 -0.322844
0.181336 0.804317 -0.228606
-0.372551 -0.0487428 0.133083
-0.101546 -0.475382 0.663157
-0.271214 0.498067 -0.167977
0.460287 0.727236 -0.177367
0.0501277 -0.274014 0.941915
-0.310744 -0.658159 0.12474
0.134533 0.161682 0.796578
0.284726 0.698216 -0.343913
0.153438 0.391277 0.0121446
0.134346 0.834135 -0.324328
-0.119758 -0.0911109 0.968067
0.149393 0.222637 0.439843
0.0242757 -0.0726037 0.999895
0.401583 0.612716 -0.19176
-0.153901 0.116281 -0.399697
-0.213045 0.609177 -0.109989
-0.201854 0.770051 -0.234112
0.179633 -0.708233 -0.0350267
0.272342 0.00331308 -0.0724007
-0.256292 0.0501447 0.807253
0.176115 0.180806 0.535582
-0.0956803 -0.199455 0.960676
-0.171199 0.908866 -0.224253
-0.274851 -0.146856 -0.114171
0.148938 -0.0188178 0.950827
-0.145237 -0.635178 0.13052
-0.23911 0.14497 -0.502892
0.153638 0.772539 -0.191376
-0.119159 0.809804 -0.331351
0 0.834904 -0.275945
0.318359 0.584666 -0.230094
-0.218551 0.860755 -0.297102
0.300161 0.759231 -0.259113
0.122404 0.729951 -0.151266
0.318198 0.390558 -0.446528
0.0582598 -0.0403976 1.0119
-0.186967 -0.607615 -0.104287
-0.257025 -0.429064 0.536591
-0.350232 0.00253885 0.0908221
0.155037 0.0342159 0.918365
-0.307808 -0.00318692 -0.0317095
-0.236433 0.132176 0.525634
0.214922 -0.0472768 0.917853
0.25445 0.101336 0.680112
-0.198521 0.154682 0.689709
0.0589761 0.827121 -0.27268
0.274846 -0.418754 0.252658
-0.270197 -0.670204 0.705429
0.0888081 0.831892 -0.249223
-0.432195 0.751246 -0.233457
-0.102733 -0.558625 0.896274
0 -0.503509 0.307563
-0.105997 0.402715 0.0360884
0.0766662 0.0457919 -0.217551
-0.0541098 0.40816 0.0483714
0.0606884 0.60785 0.00104436
0.0703592 0.199987 0.759265
0 0.340641 -0.665066
-0.375596 -0.311145 0.175939
0.0816243 -0.264189 -0.144485
-0.385994 -0.115397 0.252169
0.0954346 0.370179 0.029827
0.341299 -0.375944 0.366232
-0.0541294 -0.000582154 0.980957
0.20189 0.765574 -0.22074
0.342627 -0.106257 -0.015664
0.363729 -0.333817 0.306674
0.192938 -0.45045 0.307624
-0.26979 -0.455493 0.624003
0.174785 -0.442414 0.24495
0.363023 -0.0919062 0.0524717
-0.215375 0.198113 0.382954
-0.36907 -0.228332 0.435279
0.209867 -0.161573 0.925244
-0.0427012 -0.0854758 1.01505
0.336842 -0.40362 0.835552
0 0.499175 0.0586613
-0.258514 0.602197 -0.445199
0.0321871 -0.0691596 -0.222731
0.164631 -0.0504489 0.951176
-0.454185 0.684351 -0.230461
-0.169159 0.42866 0.0126096
0.271155 0.129527 0.366223
0.380073 -0.0641595 0.195141
-0.35769 -0.345276 0.36828
-0.300703 0.102007 0.305644
-0.103071 0.800257 -0.198013
